# .PCD v0.7 - Point Cloud Data file format
VERSION 0.7
FIELDS x y z normal_x normal_y normal_z
SIZE 4 4 4 4 4 4
TYPE F F F F F F
COUNT 1 1 1 1 1 1
WIDTH 1336
HEIGHT 1
VIEWPOINT 0 0 0 1 0 0 0
POINTS 1336
DATA ascii
-1.8 3.8 -1.2 3.296614013e-14 1 4.690769358e-14
-1.8 3.8 -1 6.643890184e-14 1 2.788520908e-14
-1.8 3.8 -0.8 3.705064531e-14 1 3.768129459e-14
-1.8 3.8 -0.6 5.731340673e-14 1 1.520285202e-14
-1.8 3.8 -0.4 4.385955539e-14 1 1.15030429e-14
-1.8 3.8 -0.2 4.34937788e-14 1 -1.828882917e-15
-1.8 3.8 0 5.807925146e-14 1 3.010167853e-15
-1.8 3.8 0.2 3.461213475e-14 1 -3.373973658e-15
-1.8 3.8 0.4 4.77306909e-14 1 -1.339393966e-14
-1.8 3.8 0.6 5.749629503e-14 1 -1.085347414e-14
-1.8 3.8 0.8 5.694763015e-14 1 -2.390160778e-14
-1.8 3.8 1 5.932517794e-14 1 -3.264030466e-14
-1.8 3.8 1.2 4.983390625e-14 1 -3.662390596e-14
-1.8 3.8 1.4 5.019968284e-14 1 -4.532266172e-14
-1.8 3.8 1.6 3.72335336e-14 1 -3.333191671e-14
-1.8 3.8 1.8 6.02396194e-14 1 -5.438719407e-14
-1.8 3.8 2 6.991377939e-14 1 -5.475297065e-14
-1.8 3.8 2.2 6.02396194e-14 1 -5.438719407e-14
-1.8 3.8 2.4 4.983390625e-14 1 -3.662390596e-14
-1.8 3.8 2.6 4.308595894e-14 1 -1.058481755e-13
-1.8 3.8 2.8 6.625601355e-14 1 -3.223458696e-14
-1.8 3.8 3 5.438719407e-14 1 -8.479289811e-14
-1.8 3.8 3.2 5.219253457e-14 1 -1.369854327e-13
-1.8 3.8 3.4 7.018114083e-14 0.9913436094 0.1312929859
-1.8 3.8 3.6 2.804006079e-14 0.9294466674 0.3689564912
-1.8 3.8 3.8 -0.007472111874 0.7039377404 0.7102223772
-1.6 -4 -4 -0.007472111874 -0.7102223772 -0.7039377404
-1.6 -4 -3.8 -0.02305656781 -0.9460745224 -0.3231275176
-1.6 -4 -3.6 -0.006781004935 -0.9893648346 -0.1452970821
-1.6 -4 -3.4 0 -1 0
-1.6 -4 -3.2 0 -1 0
-1.6 -4 -3 0 -1 0
-1.6 -4 -2.8 0 -1 0
-1.6 -4 -2.6 0 -1 0
-1.6 -4 -2.4 0 -1 0
-1.6 -4 -2.2 0 -1 0
-1.6 -4 -2 0 -1 0
-1.6 -4 -1.8 0 -1 0
-1.6 -4 -1.6 0 -1 0
-1.6 -4 -1.4 0 -1 0
-1.6 -4 -1.2 0 -1 0
-1.6 -4 -1 0 -1 0
-1.6 -4 -0.8 0 -1 0
-1.6 -4 -0.6 0 -1 0
-1.6 -4 -0.4 0 -1 0
-1.6 -4 -0.2 0 -1 0
-1.6 -4 0 0 -1 0
-1.6 -4 0.2 0 -1 0
-1.6 -4 0.4 0 -1 0
-1.6 -4 0.6 0 -1 0
-1.6 -4 0.8 0 -1 0
-1.6 -4 1 0 -1 0
-1.6 -4 1.2 0 -1 0
-1.6 -4 1.4 0 -1 0
-1.6 -4 1.6 0 -1 0
-1.6 -4 1.8 0 -1 0
-1.6 -4 2 0 -1 0
-1.6 -4 2.2 0 -1 0
-1.6 -4 2.4 0 -1 0
-1.6 -4 2.6 0 -1 0
-1.6 -4 2.8 0 -1 0
-1.6 -4 3 0 -1 0
-1.6 -4 3.2 0 -1 0
-1.6 -4 3.4 -0.006781004935 -0.9893648346 0.1452970821
-1.6 -4 3.6 0.01420460716 -0.9113855996 0.4113083003
-1.6 -4 3.8 -0.007472111874 -0.7102223772 0.7039377404
-1.6 -3.8 -4 -0.02305656781 -0.3231275176 -0.9460745224
-1.6 -3.8 3.8 -0.02305656781 -0.3231275176 0.9460745224
-1.6 -3.6 -4 -0.006781004935 -0.1452970821 -0.9893648346
-1.6 -3.6 3.8 -0.006781004935 -0.1452970821 0.9893648346
-1.6 -3.4 -4 -0 -0 -1
-1.6 -3.4 3.8 3.113725721e-14 9.52784935e-14 1
-1.6 -3.2 -4 0 0 -1
-1.6 -3.2 3.8 4.235440577e-14 8.845066394e-14 1
-1.6 -3 -4 -0 -0 -1
-1.6 -3 3.8 4.12991193e-14 5.621607698e-14 1
-1.6 -2.8 -4 -0 -0 -1
-1.6 -2.8 3.8 3.650198043e-14 5.072942823e-14 1
-1.6 -2.6 -4 -0 -0 -1
-1.6 -2.6 3.8 3.040570404e-14 1.146268135e-13 1
-1.6 -2.4 -4 0 0 -1
-1.6 -2.4 3.8 3.772123571e-14 7.88563862e-14 1
-1.6 -2.2 -4 0 0 -1
-1.6 -2.2 3.8 4.16228526e-14 7.105315242e-14 1
-1.6 -2 -4 0 0 -1
-1.6 -2 3.8 4.089129944e-14 5.36556409e-14 1
-1.6 -1.8 -4 0 0 -1
-1.6 -1.8 3.8 4.12991193e-14 5.621607698e-14 1
-1.6 -1.6 -4 -0 -0 -1
-1.6 -1.6 3.8 3.686775702e-14 4.203067247e-14 1
-1.6 -1.4 -4 0 0 -1
-1.6 -1.4 3.8 3.625812938e-14 4.015974627e-14 1
-1.6 -1.2 -4 -0 -0 -1
-1.6 -1.2 3.8 3.260036354e-14 5.658185357e-14 1
-1.6 -1 -4 0 0 -1
-1.6 -1 3.8 3.997685798e-14 3.19087515e-14 1
-1.6 -0.8 -4 -0 -0 -1
-1.6 -0.8 3.8 4.203067247e-14 3.686775702e-14 1
-1.6 -0.6 -4 -0 -0 -1
-1.6 -0.6 3.8 4.276222564e-14 1.751943705e-14 1
-1.6 -0.4 -4 0 0 -1
-1.6 -0.4 3.8 3.534368792e-14 1.597434631e-14 1
-1.6 -0.2 -4 -0 -0 -1
-1.6 -0.2 3.8 4.34937788e-14 -1.828882917e-15 1
-1.6 0 -4 0 0 -1
-1.6 0 3.8 3.873093149e-14 2.278614686e-15 1
-1.6 0.2 -4 0 0 -1
-1.6 0.2 3.8 4.321944637e-14 -5.42673707e-15 1
-1.6 0.4 -4 -0 -0 -1
-1.6 0.4 3.8 3.924530481e-14 -1.451123998e-14 1
-1.6 0.6 -4 -0 -0 -1
-1.6 0.6 3.8 2.957114483e-14 -1.414546339e-14 1
-1.6 0.8 -4 -0 -0 -1
-1.6 0.8 3.8 4.459110856e-14 -3.085136287e-14 1
-1.6 1 -4 0 0 -1
-1.6 1 3.8 4.239644905e-14 -2.719359703e-14 1
-1.6 1.2 -4 0 0 -1
-1.6 1.2 3.8 3.759931018e-14 -2.463316095e-14 1
-1.6 1.4 -4 0 0 -1
-1.6 1.4 3.8 3.833086335e-14 -7.235649427e-15 1
-1.6 1.6 -4 -0 -0 -1
-1.6 1.6 3.8 3.048558628e-14 -3.589235279e-14 1
-1.6 1.8 -4 -0 -0 -1
-1.6 1.8 3.8 4.495688514e-14 -4.052552285e-14 1
-1.6 2 -4 0 0 -1
-1.6 2 3.8 3.186881038e-14 -7.593017353e-14 1
-1.6 2.2 -4 0 0 -1
-1.6 2.2 3.8 3.650198043e-14 -5.072942823e-14 1
-1.6 2.4 -4 -0 -0 -1
-1.6 2.4 3.8 4.16228526e-14 -7.105315242e-14 1
-1.6 2.6 -4 -0 -0 -1
-1.6 2.6 3.8 3.487490529e-14 -1.402774219e-13 1
-1.6 2.8 -4 -0 -0 -1
-1.6 2.8 3.8 4.495688514e-14 -4.052552285e-14 1
-1.6 3 -4 0 0 -1
-1.6 3 3.8 4.12991193e-14 -5.621607698e-14 1
-1.6 3.2 -4 0 0 -1
-1.6 3.2 3.8 3.28442146e-14 -1.377169858e-13 1
-1.6 3.4 -4 -0.006781004935 0.1452970821 -0.9893648346
-1.6 3.4 3.8 -0.006781004935 0.1452970821 0.9893648346
-1.6 3.6 -4 0.01420460716 0.4113083003 -0.9113855996
-1.6 3.6 3.8 0.01420460716 0.4113083003 0.9113855996
-1.6 3.8 -4 -0.007472111874 0.7039377404 -0.7102223772
-1.6 3.8 -3.8 -0.02305656781 0.9460745224 -0.3231275176
-1.6 3.8 -3.6 -0.006781004935 0.9893648346 -0.1452970821
-1.6 3.8 -3.4 3.113725721e-14 1 9.52784935e-14
-1.6 3.8 -3.2 4.235440577e-14 1 8.845066394e-14
-1.6 3.8 -3 4.203067247e-14 1 3.686775702e-14
-1.6 3.8 -2.8 3.650198043e-14 1 5.072942823e-14
-1.6 3.8 -2.6 3.040570404e-14 1 1.146268135e-13
-1.6 3.8 -2.4 3.772123571e-14 1 7.88563862e-14
-1.6 3.8 -2.2 4.16228526e-14 1 7.105315242e-14
-1.6 3.8 -2 4.089129944e-14 1 5.36556409e-14
-1.6 3.8 -1.8 4.12991193e-14 1 5.621607698e-14
-1.6 3.8 -1.6 3.686775702e-14 1 4.203067247e-14
-1.6 3.8 -1.4 3.625812938e-14 1 4.015974627e-14
-1.6 3.8 -1.2 4.12991193e-14 1 5.621607698e-14
-1.6 3.8 -1 3.961108139e-14 1 2.320999574e-14
-1.6 3.8 -0.8 3.625812938e-14 1 4.015974627e-14
-1.6 3.8 -0.6 4.276222564e-14 1 1.751943705e-14
-1.6 3.8 -0.4 3.534368792e-14 1 1.597434631e-14
-1.6 3.8 -0.2 3.474930097e-14 1 -2.538363359e-16
-1.6 3.8 0 3.873664675e-14 1 2.414532745e-15
-1.6 3.8 0.2 4.326516844e-14 1 -4.217467072e-15
-1.6 3.8 0.4 3.924530481e-14 1 -1.451123998e-14
-1.6 3.8 0.6 2.957114483e-14 1 -1.414546339e-14
-1.6 3.8 0.8 4.495688514e-14 1 -4.052552285e-14
-1.6 3.8 1 4.239644905e-14 1 -2.719359703e-14
-1.6 3.8 1.2 3.833086335e-14 1 -7.235649427e-15
-1.6 3.8 1.4 3.869663993e-14 1 1.463106334e-15
-1.6 3.8 1.6 4.015974627e-14 1 -3.625812938e-14
-1.6 3.8 1.8 4.495688514e-14 1 -4.052552285e-14
-1.6 3.8 2 4.056756614e-14 1 -7.556439695e-14
-1.6 3.8 2.2 3.650198043e-14 1 -5.072942823e-14
-1.6 3.8 2.4 4.16228526e-14 1 -7.105315242e-14
-1.6 3.8 2.6 4.38175121e-14 1 -1.23245687e-13
-1.6 3.8 2.8 3.625812938e-14 1 -4.015974627e-14
-1.6 3.8 3 4.12991193e-14 1 -5.621607698e-14
-1.6 3.8 3.2 3.28442146e-14 1 -1.377169858e-13
-1.6 3.8 3.4 -0.006781004935 0.9893648346 0.1452970821
-1.6 3.8 3.6 0.01420460716 0.9113855996 0.4113083003
-1.6 3.8 3.8 -0.007472111874 0.7102223772 0.7039377404
-1.4 -4 -4 -0.01773512427 -0.7730016777 -0.634156031
-1.4 -4 -3.8 -0.04545697853 -0.9321056145 -0.3593226776
-1.4 -4 -3.6 -0.03080395031 -0.9810877855 -0.1910965038
-1.4 -4 -3.4 0 -1 0
-1.4 -4 -3.2 0 -1 0
-1.4 -4 -3 0 -1 0
-1.4 -4 -2.8 0 -1 0
-1.4 -4 -2.6 0 -1 0
-1.4 -4 -2.4 0 -1 0
-1.4 -4 -2.2 0 -1 0
-1.4 -4 -2 0 -1 0
-1.4 -4 -1.8 0 -1 0
-1.4 -4 -1.6 0 -1 0
-1.4 -4 -1.4 0 -1 0
-1.4 -4 -1.2 0 -1 0
-1.4 -4 -1 0 -1 0
-1.4 -4 -0.8 0 -1 0
-1.4 -4 -0.6 0 -1 0
-1.4 -4 -0.4 0 -1 0
-1.4 -4 -0.2 0 -1 0
-1.4 -4 0 0 -1 0
-1.4 -4 0.2 0 -1 0
-1.4 -4 0.4 0 -1 0
-1.4 -4 0.6 0 -1 0
-1.4 -4 0.8 0 -1 0
-1.4 -4 1 0 -1 0
-1.4 -4 1.2 0 -1 0
-1.4 -4 1.4 0 -1 0
-1.4 -4 1.6 0 -1 0
-1.4 -4 1.8 0 -1 0
-1.4 -4 2 0 -1 0
-1.4 -4 2.2 0 -1 0
-1.4 -4 2.4 0 -1 0
-1.4 -4 2.6 0 -1 0
-1.4 -4 2.8 0 -1 0
-1.4 -4 3 0 -1 0
-1.4 -4 3.2 0 -1 0
-1.4 -4 3.4 3.71790021e-15 -0.9913436094 0.1312929859
-1.4 -4 3.6 5.362273771e-14 -0.894427191 0.4472135955
-1.4 -4 3.8 -0.01773512427 -0.634156031 0.7730016777
-1.4 -3.8 -4 -0.04545697853 -0.3593226776 -0.9321056145
-1.4 -3.8 3.8 0.02305656781 -0.3231275176 0.9460745224
-1.4 -3.6 -4 -0.03080395031 -0.1910965038 -0.9810877855
-1.4 -3.6 3.8 -0.02066686099 -0.1593316223 0.9870087715
-1.4 -3.4 -4 0 0 -1
-1.4 -3.4 3.8 4.715154464e-14 9.857048275e-14 1
-1.4 -3.2 -4 -0 -0 -1
-1.4 -3.2 3.8 3.430732093e-14 1.029219628e-13 1
-1.4 -3 -4 0 0 -1
-1.4 -3 3.8 4.089129944e-14 5.36556409e-14 1
-1.4 -2.8 -4 0 0 -1
-1.4 -2.8 3.8 4.16228526e-14 7.105315242e-14 1
-1.4 -2.6 -4 0 0 -1
-1.4 -2.6 3.8 4.308595894e-14 1.058481755e-13 1
-1.4 -2.4 -4 -0 -0 -1
-1.4 -2.4 3.8 2.682782045e-14 5.109520482e-14 1
-1.4 -2.2 -4 -0 -0 -1
-1.4 -2.2 3.8 3.577042727e-14 6.812693975e-14 1
-1.4 -2 -4 -0 -0 -1
-1.4 -2 3.8 4.617614042e-14 5.036365165e-14 1
-1.4 -1.8 -4 0 0 -1
-1.4 -1.8 3.8 4.015974627e-14 3.625812938e-14 1
-1.4 -1.6 -4 0 0 -1
-1.4 -1.6 3.8 4.052552285e-14 4.495688514e-14 1
-1.4 -1.4 -4 -0 -0 -1
-1.4 -1.4 3.8 4.203067247e-14 3.686775702e-14 1
-1.4 -1.2 -4 0 0 -1
-1.4 -1.2 3.8 4.6541917e-14 4.166489589e-14 1
-1.4 -1 -4 -0 -0 -1
-1.4 -1 3.8 3.778219848e-14 2.028378307e-14 1
-1.4 -0.8 -4 0 0 -1
-1.4 -0.8 3.8 4.034263456e-14 4.060750726e-14 1
-1.4 -0.6 -4 0 0 -1
-1.4 -0.6 3.8 3.887952823e-14 5.812484214e-15 1
-1.4 -0.4 -4 -0 -0 -1
-1.4 -0.4 3.8 3.433780231e-14 1.062959365e-14 1
-1.4 -0.2 -4 -0 -0 -1
-1.4 -0.2 3.8 2.897675788e-14 -9.985280296e-18 1
-1.4 0 -4 -0 -0 -1
-1.4 0 3.8 5.800495309e-14 -1.243233089e-15 1
-1.4 0.2 -4 -0 -0 -1
-1.4 0.2 3.8 5.822784819e-14 -6.544037381e-15 1
-1.4 0.4 -4 0 0 -1
-1.4 0.4 3.8 4.782213504e-14 -1.121925072e-14 1
-1.4 0.6 -4 0 0 -1
-1.4 0.6 3.8 3.814797506e-14 -1.158502731e-14 1
-1.4 0.8 -4 0 0 -1
-1.4 0.8 3.8 3.72335336e-14 -3.333191671e-14 1
-1.4 1 -4 -0 -0 -1
-1.4 1 3.8 3.979396968e-14 -2.755937362e-14 1
-1.4 1.2 -4 -0 -0 -1
-1.4 1.2 3.8 4.015974627e-14 -3.625812938e-14 1
-1.4 1.4 -4 -0 -0 -1
-1.4 1.4 3.8 3.979396968e-14 -2.755937362e-14 1
-1.4 1.6 -4 0 0 -1
-1.4 1.6 3.8 3.759931018e-14 -2.463316095e-14 1
-1.4 1.8 -4 0 0 -1
-1.4 1.8 3.8 3.650198043e-14 -5.072942823e-14 1
-1.4 2 -4 -0 -0 -1
-1.4 2 3.8 4.089129944e-14 -5.36556409e-14 1
-1.4 2.2 -4 -0 -0 -1
-1.4 2.2 3.8 4.089129944e-14 -5.36556409e-14 1
-1.4 2.4 -4 0 0 -1
-1.4 2.4 3.8 3.650198043e-14 -5.072942823e-14 1
-1.4 2.6 -4 0 0 -1
-1.4 2.6 3.8 3.357576777e-14 -1.203194743e-13 1
-1.4 2.8 -4 0 0 -1
-1.4 2.8 3.8 3.72335336e-14 -3.333191671e-14 1
-1.4 3 -4 -0 -0 -1
-1.4 3 3.8 4.089129944e-14 -5.36556409e-14 1
-1.4 3.2 -4 -0 -0 -1
-1.4 3.2 3.8 4.454906527e-14 -1.406431985e-13 1
-1.4 3.4 -4 3.71790021e-15 0.1312929859 -0.9913436094
-1.4 3.4 3.8 7.204009094e-14 0.1312929859 0.9913436094
-1.4 3.6 -4 4.766465574e-14 0.4472135955 -0.894427191
-1.4 3.6 3.8 3.409217893e-14 0.3689564912 0.9294466674
-1.4 3.8 -4 -0.01773512427 0.7730016777 -0.634156031
-1.4 3.8 -3.8 0.02305656781 0.9460745224 -0.3231275176
-1.4 3.8 -3.6 -0.02066686099 0.9870087715 -0.1593316223
-1.4 3.8 -3.4 4.715154464e-14 1 9.857048275e-14
-1.4 3.8 -3.2 3.430732093e-14 1 1.029219628e-13
-1.4 3.8 -3 4.089129944e-14 1 5.36556409e-14
-1.4 3.8 -2.8 4.089129944e-14 1 5.36556409e-14
-1.4 3.8 -2.6 4.308595894e-14 1 1.058481755e-13
-1.4 3.8 -2.4 2.682782045e-14 1 5.109520482e-14
-1.4 3.8 -2.2 3.577042727e-14 1 6.812693975e-14
-1.4 3.8 -2 4.617614042e-14 1 5.036365165e-14
-1.4 3.8 -1.8 4.015974627e-14 1 3.625812938e-14
-1.4 3.8 -1.6 4.015974627e-14 1 3.625812938e-14
-1.4 3.8 -1.4 4.690769358e-14 1 3.296614013e-14
-1.4 3.8 -1.2 3.686775702e-14 1 4.203067247e-14
-1.4 3.8 -1 3.778219848e-14 1 2.028378307e-14
-1.4 3.8 -0.8 4.034263456e-14 1 4.060750726e-14
-1.4 3.8 -0.6 3.887952823e-14 1 5.812484214e-15
-1.4 3.8 -0.4 3.442924646e-14 1 8.21105365e-15
-1.4 3.8 -0.2 2.888531373e-14 1 2.16470366e-15
-1.4 3.8 0 5.800495309e-14 1 -1.243233089e-15
-1.4 3.8 0.2 5.822784819e-14 1 -6.544037381e-15
-1.4 3.8 0.4 4.782213504e-14 1 -1.121925072e-14
-1.4 3.8 0.6 3.814797506e-14 1 -1.158502731e-14
-1.4 3.8 0.8 3.72335336e-14 1 -3.333191671e-14
-1.4 3.8 1 3.979396968e-14 1 -2.755937362e-14
-1.4 3.8 1.2 4.015974627e-14 1 -3.625812938e-14
-1.4 3.8 1.4 4.983390625e-14 1 -3.662390596e-14
-1.4 3.8 1.6 3.759931018e-14 1 -2.463316095e-14
-1.4 3.8 1.8 3.650198043e-14 1 -5.072942823e-14
-1.4 3.8 2 4.089129944e-14 1 -5.36556409e-14
-1.4 3.8 2.2 4.089129944e-14 1 -5.36556409e-14
-1.4 3.8 2.4 3.577042727e-14 1 -6.812693975e-14
-1.4 3.8 2.6 3.430732093e-14 1 -1.029219628e-13
-1.4 3.8 2.8 3.72335336e-14 1 -3.333191671e-14
-1.4 3.8 3 4.089129944e-14 1 -5.36556409e-14
-1.4 3.8 3.2 4.454906527e-14 1 -1.406431985e-13
-1.4 3.8 3.4 7.204009094e-14 0.9913436094 0.1312929859
-1.4 3.8 3.6 3.409217893e-14 0.9294466674 0.3689564912
-1.4 3.8 3.8 0.007472111874 0.7102223772 0.7039377404
-1.2 -4 -4 0.01773512427 -0.7730016777 -0.634156031
-1.2 -4 -3.8 -0.04545697853 -0.9321056145 -0.3593226776
-1.2 -4 -3.6 0.03080395031 -0.9810877855 -0.1910965038
-1.2 -4 -3.4 0 -1 0
-1.2 -4 -3.2 0 -1 0
-1.2 -4 -3 0 -1 0
-1.2 -4 -2.8 0 -1 0
-1.2 -4 -2.6 0 -1 0
-1.2 -4 -2.4 0 -1 0
-1.2 -4 -2.2 0 -1 0
-1.2 -4 -2 0 -1 0
-1.2 -4 -1.8 0 -1 0
-1.2 -4 -1.6 0 -1 0
-1.2 -4 -1.4 0 -1 0
-1.2 -4 -1.2 0 -1 0
-1.2 -4 -1 0 -1 0
-1.2 -4 -0.8 0 -1 0
-1.2 -4 -0.6 0 -1 0
-1.2 -4 -0.4 0 -1 0
-1.2 -4 -0.2 0 -1 0
-1.2 -4 0 0 -1 0
-1.2 -4 0.2 0 -1 0
-1.2 -4 0.4 0 -1 0
-1.2 -4 0.6 0 -1 0
-1.2 -4 0.8 0 -1 0
-1.2 -4 1 0 -1 0
-1.2 -4 1.2 0 -1 0
-1.2 -4 1.4 0 -1 0
-1.2 -4 1.6 0 -1 0
-1.2 -4 1.8 0 -1 0
-1.2 -4 2 0 -1 0
-1.2 -4 2.2 0 -1 0
-1.2 -4 2.4 0 -1 0
-1.2 -4 2.6 0 -1 0
-1.2 -4 2.8 0 -1 0
-1.2 -4 3 0 -1 0
-1.2 -4 3.2 0 -1 0
-1.2 -4 3.4 3.71790021e-15 -0.9913436094 0.1312929859
-1.2 -4 3.6 2.383232787e-14 -0.894427191 0.4472135955
-1.2 -4 3.8 0.01773512427 -0.634156031 0.7730016777
-1.2 -3.8 -4 -0.04545697853 -0.3593226776 -0.9321056145
-1.2 -3.8 3.8 0.02305656781 -0.3231275176 0.9460745224
-1.2 -3.6 -4 0.03080395031 -0.1910965038 -0.9810877855
-1.2 -3.6 3.8 -0.02066686099 -0.1593316223 0.9870087715
-1.2 -3.4 -4 0 0 -1
-1.2 -3.4 3.8 3.845278888e-14 9.820470617e-14 1
-1.2 -3.2 -4 0 0 -1
-1.2 -3.2 3.8 6.24342789e-14 1.065797286e-13 1
-1.2 -3 -4 -0 -0 -1
-1.2 -3 3.8 3.650198043e-14 5.072942823e-14 1
-1.2 -2.8 -4 -0 -0 -1
-1.2 -2.8 3.8 4.617614042e-14 5.036365165e-14 1
-1.2 -2.6 -4 -0 -0 -1
-1.2 -2.6 3.8 5.36556409e-14 1.021904096e-13 1
-1.2 -2.4 -4 0 0 -1
-1.2 -2.4 3.8 3.260036354e-14 5.658185357e-14 1
-1.2 -2.2 -4 0 0 -1
-1.2 -2.2 3.8 6.097117257e-14 7.178470559e-14 1
-1.2 -2 -4 0 0 -1
-1.2 -2 3.8 6.02396194e-14 5.438719407e-14 1
-1.2 -1.8 -4 -0 -0 -1
-1.2 -1.8 3.8 2.719359703e-14 4.239644905e-14 1
-1.2 -1.6 -4 -0 -0 -1
-1.2 -1.6 3.8 4.690769358e-14 3.296614013e-14 1
-1.2 -1.4 -4 0 0 -1
-1.2 -1.4 3.8 3.369769329e-14 2.755937362e-14 1
-1.2 -1.2 -4 0 0 -1
-1.2 -1.2 3.8 3.625812938e-14 4.015974627e-14 1
-1.2 -1 -4 0 0 -1
-1.2 -1 3.8 4.928524138e-14 2.357577232e-14 1
-1.2 -0.8 -4 0 0 -1
-1.2 -0.8 3.8 1.770232534e-14 3.841284776e-14 1
-1.2 -0.6 -4 -0 -0 -1
-1.2 -0.6 3.8 5.786207161e-14 2.15471838e-15 1
-1.2 -0.4 -4 0 0 -1
-1.2 -0.4 3.8 3.433780231e-14 1.062959365e-14 1
-1.2 -0.2 -4 0 0 -1
-1.2 -0.2 3.8 4.850796614e-14 5.090916328e-15 1
-1.2 0 -4 0 0 -1
-1.2 0 3.8 5.808496672e-14 3.146085912e-15 1
-1.2 0.2 -4 0 0 -1
-1.2 0.2 3.8 2.883959166e-14 -3.25204813e-15 1
-1.2 0.4 -4 -0 -0 -1
-1.2 0.4 3.8 1.989698484e-14 -1.377968681e-14 1
-1.2 0.6 -4 -0 -0 -1
-1.2 0.6 3.8 4.891946479e-14 -1.487701656e-14 1
-1.2 0.8 -4 -0 -0 -1
-1.2 0.8 3.8 5.950806624e-14 -3.698968254e-14 1
-1.2 1 -4 0 0 -1
-1.2 1 3.8 5.694763015e-14 -2.390160778e-14 1
-1.2 1.2 -4 0 0 -1
-1.2 1.2 3.8 4.690769358e-14 -3.296614013e-14 1
-1.2 1.4 -4 0 0 -1
-1.2 1.4 3.8 3.72335336e-14 -3.333191671e-14 1
-1.2 1.6 -4 -0 -0 -1
-1.2 1.6 3.8 4.983390625e-14 -3.662390596e-14 1
-1.2 1.8 -4 -0 -0 -1
-1.2 1.8 3.8 6.02396194e-14 -5.438719407e-14 1
-1.2 2 -4 0 0 -1
-1.2 2 3.8 5.58503004e-14 -4.999787507e-14 1
-1.2 2.2 -4 0 0 -1
-1.2 2.2 3.8 4.544458725e-14 -6.776116317e-14 1
-1.2 2.4 -4 -0 -0 -1
-1.2 2.4 3.8 4.089129944e-14 -5.36556409e-14 1
-1.2 2.6 -4 -0 -0 -1
-1.2 2.6 3.8 5.349167209e-14 -1.236114636e-13 1
-1.2 2.8 -4 -0 -0 -1
-1.2 2.8 3.8 5.950806624e-14 -3.698968254e-14 1
-1.2 3 -4 0 0 -1
-1.2 3 3.8 5.58503004e-14 -4.999787507e-14 1
-1.2 3.2 -4 0 0 -1
-1.2 3.2 3.8 4.251837458e-14 -1.373512093e-13 1
-1.2 3.4 -4 3.71790021e-15 0.1312929859 -0.9913436094
-1.2 3.4 3.8 4.582658471e-14 0.1312929859 0.9913436094
-1.2 3.6 -4 1.191616394e-14 0.4472135955 -0.894427191
-1.2 3.6 3.8 4.604404731e-14 0.3689564912 0.9294466674
-1.2 3.8 -4 0.01773512427 0.7730016777 -0.634156031
-1.2 3.8 -3.8 0.02305656781 0.9460745224 -0.3231275176
-1.2 3.8 -3.6 -0.02066686099 0.9870087715 -0.1593316223
-1.2 3.8 -3.4 3.845278888e-14 1 9.820470617e-14
-1.2 3.8 -3.2 6.24342789e-14 1 1.065797286e-13
-1.2 3.8 -3 3.650198043e-14 1 5.072942823e-14
-1.2 3.8 -2.8 4.617614042e-14 1 5.036365165e-14
-1.2 3.8 -2.6 5.36556409e-14 1 1.021904096e-13
-1.2 3.8 -2.4 3.260036354e-14 1 5.658185357e-14
-1.2 3.8 -2.2 6.097117257e-14 1 7.178470559e-14
-1.2 3.8 -2 6.02396194e-14 1 5.438719407e-14
-1.2 3.8 -1.8 3.72335336e-14 1 3.333191671e-14
-1.2 3.8 -1.6 4.6541917e-14 1 4.166489589e-14
-1.2 3.8 -1.4 3.369769329e-14 1 2.755937362e-14
-1.2 3.8 -1.2 3.662390596e-14 1 4.983390625e-14
-1.2 3.8 -1 4.928524138e-14 1 2.357577232e-14
-1.2 3.8 -0.8 2.774226191e-14 1 2.934831541e-14
-1.2 3.8 -0.6 4.818791163e-14 1 2.520494963e-15
-1.2 3.8 -0.4 5.182675798e-14 1 7.479500483e-15
-1.2 3.8 -0.2 5.818212612e-14 1 5.456692911e-15
-1.2 3.8 0 5.808496672e-14 1 3.146085912e-15
-1.2 3.8 0.2 2.883959166e-14 1 -3.25204813e-15
-1.2 3.8 0.4 1.989698484e-14 1 -1.377968681e-14
-1.2 3.8 0.6 4.891946479e-14 1 -1.487701656e-14
-1.2 3.8 0.8 5.950806624e-14 1 -3.698968254e-14
-1.2 3.8 1 5.694763015e-14 1 -2.390160778e-14
-1.2 3.8 1.2 4.690769358e-14 1 -3.296614013e-14
-1.2 3.8 1.4 3.72335336e-14 1 -3.333191671e-14
-1.2 3.8 1.6 4.983390625e-14 1 -3.662390596e-14
-1.2 3.8 1.8 6.02396194e-14 1 -5.438719407e-14
-1.2 3.8 2 5.58503004e-14 1 -4.999787507e-14
-1.2 3.8 2.2 4.617614042e-14 1 -5.036365165e-14
-1.2 3.8 2.4 4.089129944e-14 1 -5.36556409e-14
-1.2 3.8 2.6 5.349167209e-14 1 -1.236114636e-13
-1.2 3.8 2.8 5.950806624e-14 1 -3.698968254e-14
-1.2 3.8 3 5.58503004e-14 1 -4.999787507e-14
-1.2 3.8 3.2 4.251837458e-14 1 -1.373512093e-13
-1.2 3.8 3.4 4.582658471e-14 0.9913436094 0.1312929859
-1.2 3.8 3.6 4.604404731e-14 0.9294466674 0.3689564912
-1.2 3.8 3.8 0.007472111874 0.7039377404 0.7102223772
-1 -4 -4 0.007472111874 -0.7039377404 -0.7102223772
-1 -4 -3.8 0.02305656781 -0.9460745224 -0.3231275176
-1 -4 -3.6 0.006781004935 -0.9893648346 -0.1452970821
-1 -4 -3.4 0 -1 0
-1 -4 -3.2 0 -1 0
-1 -4 -3 0 -1 0
-1 -4 -2.8 0 -1 0
-1 -4 -2.6 0 -1 0
-1 -4 -2.4 0 -1 0
-1 -4 -2.2 0 -1 0
-1 -4 -2 0 -1 0
-1 -4 -1.8 0 -1 0
-1 -4 -1.6 0 -1 0
-1 -4 -1.4 0 -1 0
-1 -4 -1.2 0 -1 0
-1 -4 -1 0 -1 0
-1 -4 -0.8 0 -1 0
-1 -4 -0.6 0 -1 0
-1 -4 -0.4 0 -1 0
-1 -4 -0.2 0 -1 0
-1 -4 0 0 -1 0
-1 -4 0.2 0 -1 0
-1 -4 0.4 0 -1 0
-1 -4 0.6 0 -1 0
-1 -4 0.8 0 -1 0
-1 -4 1 0 -1 0
-1 -4 1.2 0 -1 0
-1 -4 1.4 0 -1 0
-1 -4 1.6 0 -1 0
-1 -4 1.8 0 -1 0
-1 -4 2 0 -1 0
-1 -4 2.2 0 -1 0
-1 -4 2.4 0 -1 0
-1 -4 2.6 0 -1 0
-1 -4 2.8 0 -1 0
-1 -4 3 0 -1 0
-1 -4 3.2 0 -1 0
-1 -4 3.4 0.006781004935 -0.9893648346 0.1452970821
-1 -4 3.6 -0.01420460716 -0.9113855996 0.4113083003
-1 -4 3.8 0.007472111874 -0.7102223772 0.7039377404
-1 -3.8 -4 0.02305656781 -0.3231275176 -0.9460745224
-1 -3.8 3.8 0.02305656781 -0.3231275176 0.9460745224
-1 -3.6 -4 0.006781004935 -0.1452970821 -0.9893648346
-1 -3.6 3.8 0.006781004935 -0.1452970821 0.9893648346
-1 -3.4 -4 0 0 -1
-1 -3.4 3.8 1.670589948e-14 9.729026471e-14 1
-1 -3.2 -4 -0 -0 -1
-1 -3.2 3.8 3.430732093e-14 1.029219628e-13 1
-1 -3 -4 0 0 -1
-1 -3 3.8 2.320999574e-14 3.961108139e-14 1
-1 -2.8 -4 0 0 -1
-1 -2.8 3.8 4.089129944e-14 5.36556409e-14 1
-1 -2.6 -4 0 0 -1
-1 -2.6 3.8 2.540465524e-14 9.765604129e-14 1
-1 -2.4 -4 -0 -0 -1
-1 -2.4 3.8 1.95522299e-14 5.713051844e-14 1
-1 -2.2 -4 -0 -0 -1
-1 -2.2 3.8 2.609626728e-14 6.849271634e-14 1
-1 -2 -4 -0 -0 -1
-1 -2 3.8 1.678788388e-14 6.015973716e-14 1
-1 -1.8 -4 -0 -0 -1
-1 -1.8 3.8 2.861676225e-14 4.709058188e-14 1
-1 -1.6 -4 0 0 -1
-1 -1.6 3.8 2.320999574e-14 3.961108139e-14 1
-1 -1.4 -4 -0 -0 -1
-1 -1.4 3.8 1.085347414e-14 5.749629503e-14 1
-1 -1.2 -4 0 0 -1
-1 -1.2 3.8 1.524279314e-14 5.859362478e-14 1
-1 -1 -4 -0 -0 -1
-1 -1 3.8 2.9714092e-14 1.806810192e-14 1
-1 -0.8 -4 -0 -0 -1
-1 -0.8 3.8 1.469412827e-14 4.40823848e-14 1
-1 -0.6 -4 0 0 -1
-1 -0.6 3.8 3.117719833e-14 2.062853801e-14 1
-1 -0.4 -4 -0 -0 -1
-1 -0.4 3.8 2.138111282e-14 8.759718525e-15 1
-1 -0.2 -4 0 0 -1
-1 -0.2 3.8 2.179261148e-14 2.123711457e-15 1
-1 0 -4 -0 -0 -1
-1 0 3.8 1.302527261e-14 5.597012376e-17 1
-1 0.2 -4 -0 -0 -1
-1 0.2 3.8 1.318529986e-14 -4.176474869e-15 1
-1 0.4 -4 0 0 -1
-1 0.4 3.8 1.879965509e-14 -1.231658047e-14 1
-1 0.6 -4 0 0 -1
-1 0.6 3.8 3.814797506e-14 -1.158502731e-14 1
-1 0.8 -4 0 0 -1
-1 0.8 3.8 2.898253883e-14 -3.741642189e-14 1
-1 1 -4 -0 -0 -1
-1 1 3.8 2.302710744e-14 -3.47740014e-14 1
-1 1.2 -4 -0 -0 -1
-1 1.2 3.8 3.048558628e-14 -3.589235279e-14 1
-1 1.4 -4 -0 -0 -1
-1 1.4 3.8 1.971409655e-14 -9.430308928e-15 1
-1 1.6 -4 0 0 -1
-1 1.6 3.8 2.719359703e-14 -4.239644905e-14 1
-1 1.8 -4 0 0 -1
-1 1.8 3.8 2.028378307e-14 -3.778219848e-14 1
-1 2 -4 -0 -0 -1
-1 2 3.8 2.467310207e-14 -7.830772133e-14 1
-1 2.2 -4 -0 -0 -1
-1 2.2 3.8 4.089129944e-14 -5.36556409e-14 1
-1 2.4 -4 0 0 -1
-1 2.4 3.8 1.64221073e-14 -6.885849292e-14 1
-1 2.6 -4 0 0 -1
-1 2.6 3.8 2.317005462e-14 -1.380827624e-13 1
-1 2.8 -4 0 0 -1
-1 2.8 3.8 2.028378307e-14 -3.778219848e-14 1
-1 3 -4 -0 -0 -1
-1 3 3.8 3.264030466e-14 -5.932517794e-14 1
-1 3.2 -4 -0 -0 -1
-1 3.2 3.8 4.454906527e-14 -1.406431985e-13 1
-1 3.4 -4 0.006781004935 0.1452970821 -0.9893648346
-1 3.4 3.8 0.006781004935 0.1452970821 0.9893648346
-1 3.6 -4 -0.01420460716 0.4113083003 -0.9113855996
-1 3.6 3.8 2.804006079e-14 0.3689564912 0.9294466674
-1 3.8 -4 0.007472111874 0.7039377404 -0.7102223772
-1 3.8 -3.8 0.02305656781 0.9460745224 -0.3231275176
-1 3.8 -3.6 0.006781004935 0.9893648346 -0.1452970821
-1 3.8 -3.4 1.670589948e-14 1 9.729026471e-14
-1 3.8 -3.2 2.536471412e-14 1 8.589022786e-14
-1 3.8 -3 2.39415489e-14 1 5.895940136e-14
-1 3.8 -2.8 4.16228526e-14 1 7.105315242e-14
-1 3.8 -2.6 2.540465524e-14 1 9.765604129e-14
-1 3.8 -2.4 1.882067673e-14 1 7.647883841e-14
-1 3.8 -2.2 2.609626728e-14 1 6.849271634e-14
-1 3.8 -2 1.678788388e-14 1 6.015973716e-14
-1 3.8 -1.8 2.788520908e-14 1 6.643890184e-14
-1 3.8 -1.6 2.320999574e-14 1 3.961108139e-14
-1 3.8 -1.4 1.121925072e-14 1 4.782213504e-14
-1 3.8 -1.2 1.524279314e-14 1 5.859362478e-14
-1 3.8 -1 2.847381508e-14 1 1.195080389e-14
-1 3.8 -0.8 1.469412827e-14 1 4.40823848e-14
-1 3.8 -0.6 2.247844257e-14 1 2.026276143e-14
-1 3.8 -0.4 2.138111282e-14 1 8.759718525e-15
-1 3.8 -0.2 2.179261148e-14 1 2.123711457e-15
-1 3.8 0 1.303098786e-14 1 -9.518862598e-17
-1 3.8 0.2 1.323102193e-14 1 -5.385744867e-15
-1 3.8 0.4 1.870821095e-14 1 -1.449126941e-14
-1 3.8 0.6 3.814797506e-14 1 -1.158502731e-14
-1 3.8 0.8 2.898253883e-14 1 -3.741642189e-14
-1 3.8 1 3.154297491e-14 1 -3.030269799e-14
-1 3.8 1.2 4.015974627e-14 1 -3.625812938e-14
-1 3.8 1.4 2.044564972e-14 1 -2.682782045e-14
-1 3.8 1.6 3.759931018e-14 1 -2.463316095e-14
-1 3.8 1.8 2.898253883e-14 1 -3.741642189e-14
-1 3.8 2 3.337185783e-14 1 -7.867349791e-14
-1 3.8 2.2 4.089129944e-14 1 -5.36556409e-14
-1 3.8 2.4 1.715366047e-14 1 -5.14609814e-14
-1 3.8 2.6 3.357576777e-14 1 -1.203194743e-13
-1 3.8 2.8 2.028378307e-14 1 -3.778219848e-14
-1 3.8 3 3.264030466e-14 1 -5.932517794e-14
-1 3.8 3.2 4.454906527e-14 1 -1.406431985e-13
-1 3.8 3.4 0.006781004935 0.9893648346 0.1452970821
-1 3.8 3.6 2.804006079e-14 0.9294466674 0.3689564912
-1 3.8 3.8 0.007472111874 0.7039377404 0.7102223772
-0.8 -4 -4 0.01773512427 -0.7730016777 -0.634156031
-0.8 -4 -3.8 0.04545697853 -0.9321056145 -0.3593226776
-0.8 -4 -3.6 -0.03080395031 -0.9810877855 -0.1910965038
-0.8 -4 -3.4 0 -1 0
-0.8 -4 -3.2 0 -1 0
-0.8 -4 -3 0 -1 0
-0.8 -4 -2.8 0 -1 0
-0.8 -4 -2.6 0 -1 0
-0.8 -4 -2.4 0 -1 0
-0.8 -4 -2.2 0 -1 0
-0.8 -4 -2 0 -1 0
-0.8 -4 -1.8 0 -1 0
-0.8 -4 -1.6 0 -1 0
-0.8 -4 -1.4 0 -1 0
-0.8 -4 -1.2 0 -1 0
-0.8 -4 -1 0 -1 0
-0.8 -4 -0.8 0 -1 0
-0.8 -4 -0.6 0 -1 0
-0.8 -4 -0.4 0 -1 0
-0.8 -4 -0.2 0 -1 0
-0.8 -4 0 0 -1 0
-0.8 -4 0.2 0 -1 0
-0.8 -4 0.4 0 -1 0
-0.8 -4 0.6 0 -1 0
-0.8 -4 0.8 0 -1 0
-0.8 -4 1 0 -1 0
-0.8 -4 1.2 0 -1 0
-0.8 -4 1.4 0 -1 0
-0.8 -4 1.6 0 -1 0
-0.8 -4 1.8 0 -1 0
-0.8 -4 2 0 -1 0
-0.8 -4 2.2 0 -1 0
-0.8 -4 2.4 0 -1 0
-0.8 -4 2.6 0 -1 0
-0.8 -4 2.8 0 -1 0
-0.8 -4 3 0 -1 0
-0.8 -4 3.2 0 -1 0
-0.8 -4 3.4 9.294750524e-16 -0.9913436094 0.1312929859
-0.8 -4 3.6 2.979040984e-14 -0.894427191 0.4472135955
-0.8 -4 3.8 0.01773512427 -0.634156031 0.7730016777
-0.8 -3.8 -4 0.04545697853 -0.3593226776 -0.9321056145
-0.8 -3.8 3.8 -0.02305656781 -0.3231275176 0.9460745224
-0.8 -3.6 -4 0.03080395031 -0.1910965038 -0.9810877855
-0.8 -3.6 3.8 0.02066686099 -0.1593316223 0.9870087715
-0.8 -3.4 -4 -0 -0 -1
-0.8 -3.4 3.8 3.113725721e-14 9.52784935e-14 1
-0.8 -3.2 -4 -0 -0 -1
-0.8 -3.2 3.8 3.430732093e-14 1.029219628e-13 1
-0.8 -3 -4 -0 -0 -1
-0.8 -3 3.8 3.678577261e-14 7.087026413e-14 1
-0.8 -2.8 -4 -0 -0 -1
-0.8 -2.8 3.8 4.133906043e-14 5.054653994e-14 1
-0.8 -2.6 -4 0 0 -1
-0.8 -2.6 3.8 3.430732093e-14 1.029219628e-13 1
-0.8 -2.4 -4 -0 -0 -1
-0.8 -2.4 3.8 2.898253883e-14 3.741642189e-14 1
-0.8 -2.2 -4 0 0 -1
-0.8 -2.2 3.8 2.609626728e-14 6.849271634e-14 1
-0.8 -2 -4 0 0 -1
-0.8 -2 3.8 4.572837943e-14 5.383852919e-14 1
-0.8 -1.8 -4 0 0 -1
-0.8 -1.8 3.8 3.227452808e-14 4.965101796e-14 1
-0.8 -1.6 -4 0 0 -1
-0.8 -1.6 3.8 3.72335336e-14 3.333191671e-14 1
-0.8 -1.4 -4 0 0 -1
-0.8 -1.4 3.8 3.589235279e-14 3.048558628e-14 1
-0.8 -1.2 -4 -0 -0 -1
-0.8 -1.2 3.8 3.406346988e-14 1.788521363e-14 1
-0.8 -1 -4 -0 -0 -1
-0.8 -1 3.8 3.294511848e-14 2.046667136e-14 1
-0.8 -0.8 -4 0 0 -1
-0.8 -0.8 3.8 3.513977798e-14 3.172586321e-14 1
-0.8 -0.6 -4 -0 -0 -1
-0.8 -0.6 3.8 3.404244823e-14 5.629595923e-15 1
-0.8 -0.4 -4 0 0 -1
-0.8 -0.4 3.8 3.951017751e-14 1.132015461e-14 1
-0.8 -0.2 -4 0 0 -1
-0.8 -0.2 3.8 3.914440092e-14 -1.645994626e-15 1
-0.8 0 -4 -0 -0 -1
-0.8 0 3.8 3.873093149e-14 2.278614686e-15 1
-0.8 0.2 -4 -0 -0 -1
-0.8 0.2 3.8 3.497791134e-14 -6.300186326e-15 1
-0.8 0.4 -4 -0 -0 -1
-0.8 0.4 3.8 3.924530481e-14 -1.451123998e-14 1
-0.8 0.6 -4 -0 -0 -1
-0.8 0.6 3.8 3.924530481e-14 -1.451123998e-14 1
-0.8 0.8 -4 -0 -0 -1
-0.8 0.8 3.8 3.72335336e-14 -3.333191671e-14 1
-0.8 1 -4 0 0 -1
-0.8 1 3.8 4.727347017e-14 -2.426738437e-14 1
-0.8 1.2 -4 0 0 -1
-0.8 1.2 3.8 3.72335336e-14 -3.333191671e-14 1
-0.8 1.4 -4 0 0 -1
-0.8 1.4 3.8 4.207061359e-14 -3.314902842e-14 1
-0.8 1.6 -4 0 0 -1
-0.8 1.6 3.8 2.79251502e-14 -2.499893753e-14 1
-0.8 1.8 -4 0 0 -1
-0.8 1.8 3.8 3.686775702e-14 -4.203067247e-14 1
-0.8 2 -4 0 0 -1
-0.8 2 3.8 4.089129944e-14 -5.36556409e-14 1
-0.8 2.2 -4 0 0 -1
-0.8 2.2 3.8 3.121713945e-14 -5.328986432e-14 1
-0.8 2.4 -4 -0 -0 -1
-0.8 2.4 3.8 3.166490044e-14 -5.091231652e-14 1
-0.8 2.6 -4 -0 -0 -1
-0.8 2.6 3.8 2.463316095e-14 -1.032877394e-13 1
-0.8 2.8 -4 -0 -0 -1
-0.8 2.8 3.8 4.983390625e-14 -3.662390596e-14 1
-0.8 3 -4 -0 -0 -1
-0.8 3 3.8 4.235440577e-14 -8.845066394e-14 1
-0.8 3.2 -4 -0 -0 -1
-0.8 3.2 3.8 3.487490529e-14 -1.402774219e-13 1
-0.8 3.4 -4 9.294750524e-16 0.1312929859 -0.9913436094
-0.8 3.4 3.8 4.489710966e-14 0.1312929859 0.9913436094
-0.8 3.6 -4 2.085328689e-14 0.4472135955 -0.894427191
-0.8 3.6 3.8 3.704205405e-14 0.3689564912 0.9294466674
-0.8 3.8 -4 -0.01773512427 0.7730016777 -0.634156031
-0.8 3.8 -3.8 -0.02305656781 0.9460745224 -0.3231275176
-0.8 3.8 -3.6 0.02066686099 0.9870087715 -0.1593316223
-0.8 3.8 -3.4 3.113725721e-14 1 9.52784935e-14
-0.8 3.8 -3.2 5.276011892e-14 1 1.06213952e-13
-0.8 3.8 -3 4.060750726e-14 1 6.794405146e-14
-0.8 3.8 -2.8 4.133906043e-14 1 5.054653994e-14
-0.8 3.8 -2.6 3.341179895e-14 1 1.054823989e-13
-0.8 3.8 -2.4 2.898253883e-14 1 3.741642189e-14
-0.8 3.8 -2.2 2.609626728e-14 1 6.849271634e-14
-0.8 3.8 -2 4.572837943e-14 1 5.383852919e-14
-0.8 3.8 -1.8 3.686775702e-14 1 4.203067247e-14
-0.8 3.8 -1.6 3.085136287e-14 1 4.459110856e-14
-0.8 3.8 -1.4 3.589235279e-14 1 3.048558628e-14
-0.8 3.8 -1.2 3.296614013e-14 1 4.690769358e-14
-0.8 3.8 -1 4.444816138e-14 1 2.339288403e-14
-0.8 3.8 -0.8 4.225350188e-14 1 2.879965054e-14
-0.8 3.8 -0.6 3.404244823e-14 1 5.629595923e-15
-0.8 3.8 -0.4 3.090286589e-14 1 1.337291802e-14
-0.8 3.8 -0.2 3.039992309e-14 1 -7.094804421e-17
-0.8 3.8 0 2.89881884e-14 1 -2.818213978e-16
-0.8 3.8 0.2 3.465785683e-14 1 -2.16470366e-15
-0.8 3.8 0.4 2.847381508e-14 1 -1.195080389e-14
-0.8 3.8 0.6 3.924530481e-14 1 -1.451123998e-14
-0.8 3.8 0.8 4.983390625e-14 1 -3.662390596e-14
-0.8 3.8 1 3.979396968e-14 1 -2.755937362e-14
-0.8 3.8 1.2 3.048558628e-14 1 -3.589235279e-14
-0.8 3.8 1.4 3.568844286e-14 1 -4.477399685e-14
-0.8 3.8 1.6 3.979396968e-14 1 -2.755937362e-14
-0.8 3.8 1.8 3.686775702e-14 1 -4.203067247e-14
-0.8 3.8 2 4.617614042e-14 1 -5.036365165e-14
-0.8 3.8 2.2 3.650198043e-14 1 -5.072942823e-14
-0.8 3.8 2.4 4.572837943e-14 1 -5.383852919e-14
-0.8 3.8 2.6 4.38175121e-14 1 -1.23245687e-13
-0.8 3.8 2.8 4.983390625e-14 1 -3.662390596e-14
-0.8 3.8 3 4.235440577e-14 1 -8.845066394e-14
-0.8 3.8 3.2 3.487490529e-14 1 -1.402774219e-13
-0.8 3.8 3.4 4.489710966e-14 0.9913436094 0.1312929859
-0.8 3.8 3.6 3.704205405e-14 0.9294466674 0.3689564912
-0.8 3.8 3.8 -0.007472111874 0.7102223772 0.7039377404
-0.6 -4 -4 -0.007472111874 -0.7039377404 -0.7102223772
-0.6 -4 -3.8 -0.02305656781 -0.9460745224 -0.3231275176
-0.6 -4 -3.6 -0.006781004935 -0.9893648346 -0.1452970821
-0.6 -4 -3.4 0 -1 0
-0.6 -4 -3.2 0 -1 0
-0.6 -4 -3 0 -1 0
-0.6 -4 -2.8 0 -1 0
-0.6 -4 -2.6 0 -1 0
-0.6 -4 -2.4 0 -1 0
-0.6 -4 -2.2 0 -1 0
-0.6 -4 -2 0 -1 0
-0.6 -4 -1.8 0 -1 0
-0.6 -4 -1.6 0 -1 0
-0.6 -4 -1.4 0 -1 0
-0.6 -4 -1.2 0 -1 0
-0.6 -4 -1 0 -1 0
-0.6 -4 -0.8 0 -1 0
-0.6 -4 -0.6 0 -1 0
-0.6 -4 -0.4 0 -1 0
-0.6 -4 -0.2 0 -1 0
-0.6 -4 0 0 -1 0
-0.6 -4 0.2 0 -1 0
-0.6 -4 0.4 0 -1 0
-0.6 -4 0.6 0 -1 0
-0.6 -4 0.8 0 -1 0
-0.6 -4 1 0 -1 0
-0.6 -4 1.2 0 -1 0
-0.6 -4 1.4 0 -1 0
-0.6 -4 1.6 0 -1 0
-0.6 -4 1.8 0 -1 0
-0.6 -4 2 0 -1 0
-0.6 -4 2.2 0 -1 0
-0.6 -4 2.4 0 -1 0
-0.6 -4 2.6 0 -1 0
-0.6 -4 2.8 0 -1 0
-0.6 -4 3 0 -1 0
-0.6 -4 3.2 0 -1 0
-0.6 -4 3.4 8.877064188e-15 -0.9913436094 0.1312929859
-0.6 -4 3.6 0.01420460716 -0.9113855996 0.4113083003
-0.6 -4 3.8 -0.007472111874 -0.7039377404 0.7102223772
-0.6 -3.8 -4 -0.02305656781 -0.3231275176 -0.9460745224
-0.6 -3.8 3.8 -0.02305656781 -0.3231275176 0.9460745224
-0.6 -3.6 -4 -0.006781004935 -0.1452970821 -0.9893648346
-0.6 -3.6 3.8 -0.006781004935 -0.1452970821 0.9893648346
-0.6 -3.4 -4 -0 -0 -1
-0.6 -3.4 3.8 5.040989926e-15 9.637582325e-14 1
-0.6 -3.2 -4 0 0 -1
-0.6 -3.2 3.8 2.373763897e-14 1.051166223e-13 1
-0.6 -3 -4 -0 -0 -1
-0.6 -3 3.8 1.520285202e-14 5.731340673e-14 1
-0.6 -2.8 -4 -0 -0 -1
-0.6 -2.8 3.8 1.715366047e-14 5.14609814e-14 1
-0.6 -2.6 -4 -0 -0 -1
-0.6 -2.6 3.8 1.42274478e-14 1.210510275e-13 1
-0.6 -2.4 -4 0 0 -1
-0.6 -2.4 3.8 1.423165213e-15 7.721039158e-14 1
-0.6 -2.2 -4 0 0 -1
-0.6 -2.2 3.8 2.227453263e-14 7.032159925e-14 1
-0.6 -2 -4 0 0 -1
-0.6 -2 3.8 1.707167606e-14 6.14399552e-14 1
-0.6 -1.8 -4 -0 -0 -1
-0.6 -1.8 3.8 1.520285202e-14 5.731340673e-14 1
-0.6 -1.6 -4 -0 -0 -1
-0.6 -1.6 3.8 1.788521363e-14 3.406346988e-14 1
-0.6 -1.4 -4 0 0 -1
-0.6 -1.4 3.8 1.016186209e-14 3.906241652e-14 1
-0.6 -1.2 -4 -0 -0 -1
-0.6 -1.2 3.8 6.869872844e-15 4.800502333e-14 1
-0.6 -1 -4 0 0 -1
-0.6 -1 3.8 2.026276143e-14 2.247844257e-14 1
-0.6 -0.8 -4 -0 -0 -1
-0.6 -0.8 3.8 6.869872844e-15 4.800502333e-14 1
-0.6 -0.6 -4 -0 -0 -1
-0.6 -0.6 3.8 1.879965509e-14 1.231658047e-14 1
-0.6 -0.4 -4 0 0 -1
-0.6 -0.4 3.8 4.80659861e-15 1.227558827e-14 1
-0.6 -0.2 -4 -0 -0 -1
-0.6 -0.2 3.8 4.303655808e-15 1.026381706e-15 1
-0.6 0 -4 0 0 -1
-0.6 0 3.8 1.938832678e-14 1.682979578e-15 1
-0.6 0.2 -4 0 0 -1
-0.6 0.2 3.8 1.72603453e-14 -2.896256827e-15 1
-0.6 0.4 -4 -0 -0 -1
-0.6 0.4 3.8 5.385744867e-15 -1.323102193e-14 1
-0.6 0.6 -4 -0 -0 -1
-0.6 0.6 3.8 1.989698484e-14 -1.377968681e-14 1
-0.6 0.8 -4 -0 -0 -1
-0.6 0.8 3.8 1.904350615e-14 -4.426527309e-14 1
-0.6 1 -4 0 0 -1
-0.6 1 3.8 1.611729348e-14 -3.312800678e-14 1
-0.6 1.2 -4 0 0 -1
-0.6 1.2 3.8 1.788521363e-14 -3.406346988e-14 1
-0.6 1.4 -4 0 0 -1
-0.6 1.4 3.8 1.268235706e-14 -4.294511393e-14 1
-0.6 1.6 -4 -0 -0 -1
-0.6 1.6 3.8 2.08114263e-14 -3.552657621e-14 1
-0.6 1.8 -4 -0 -0 -1
-0.6 1.8 3.8 1.959217102e-14 -5.877651307e-14 1
-0.6 2 -4 0 0 -1
-0.6 2 3.8 1.447129885e-14 -7.66617267e-14 1
-0.6 2.2 -4 0 0 -1
-0.6 2.2 3.8 1.715366047e-14 -5.14609814e-14 1
-0.6 2.4 -4 -0 -0 -1
-0.6 2.4 3.8 1.743745264e-14 -7.013871096e-14 1
-0.6 2.6 -4 -0 -0 -1
-0.6 2.6 3.8 2.446919214e-14 -1.225141338e-13 1
-0.6 2.8 -4 -0 -0 -1
-0.6 2.8 3.8 1.886061786e-14 -3.94281931e-14 1
-0.6 3 -4 0 0 -1
-0.6 3 3.8 1.520285202e-14 -5.731340673e-14 1
-0.6 3.2 -4 0 0 -1
-0.6 3.2 3.8 1.833297462e-14 -1.382656507e-13 1
-0.6 3.4 -4 8.877064188e-15 0.1312929859 -0.9913436094
-0.6 3.4 3.8 2.19838173e-14 0.1312929859 0.9913436094
-0.6 3.6 -4 0.01420460716 0.4113083003 -0.9113855996
-0.6 3.6 3.8 1.601200846e-14 0.3689564912 0.9294466674
-0.6 3.8 -4 -0.007472111874 0.7039377404 -0.7102223772
-0.6 3.8 -3.8 -0.02305656781 0.9460745224 -0.3231275176
-0.6 3.8 -3.6 -0.006781004935 0.9893648346 -0.1452970821
-0.6 3.8 -3.4 5.040989926e-15 1 9.637582325e-14
-0.6 3.8 -3.2 2.30060858e-14 1 8.771911078e-14
-0.6 3.8 -3 1.520285202e-14 1 5.731340673e-14
-0.6 3.8 -2.8 1.715366047e-14 1 5.14609814e-14
-0.6 3.8 -2.6 1.495900097e-14 1 1.03653516e-13
-0.6 3.8 -2.4 6.544037381e-15 1 5.822784819e-14
-0.6 3.8 -2.2 2.227453263e-14 1 7.032159925e-14
-0.6 3.8 -2 1.707167606e-14 1 6.14399552e-14
-0.6 3.8 -1.8 1.520285202e-14 1 5.731340673e-14
-0.6 3.8 -1.6 1.751943705e-14 1 4.276222564e-14
-0.6 3.8 -1.4 1.016186209e-14 1 3.906241652e-14
-0.6 3.8 -1.2 6.50409626e-15 1 5.767918332e-14
-0.6 3.8 -1 2.026276143e-14 1 2.247844257e-14
-0.6 3.8 -0.8 9.796085511e-15 1 2.938825653e-14
-0.6 3.8 -0.6 1.879965509e-14 1 1.231658047e-14
-0.6 3.8 -0.4 4.80659861e-15 1 1.227558827e-14
-0.6 3.8 -0.2 4.303655808e-15 1 1.026381706e-15
-0.6 3.8 0 1.938832678e-14 1 1.682979578e-15
-0.6 3.8 0.2 1.721462323e-14 1 -4.105526825e-15
-0.6 3.8 0.4 5.385744867e-15 1 -1.323102193e-14
-0.6 3.8 0.6 1.989698484e-14 1 -1.377968681e-14
-0.6 3.8 0.8 1.904350615e-14 1 -4.426527309e-14
-0.6 3.8 1 1.630018177e-14 1 -2.829092678e-14
-0.6 3.8 1.2 2.272229363e-14 1 -3.388058159e-14
-0.6 3.8 1.4 7.845277066e-15 1 -4.312800222e-14
-0.6 3.8 1.6 2.601428288e-14 1 -4.440822026e-14
-0.6 3.8 1.8 1.959217102e-14 1 -5.877651307e-14
-0.6 3.8 2 1.447129885e-14 1 -7.66617267e-14
-0.6 3.8 2.2 2.199074046e-14 1 -5.127809311e-14
-0.6 3.8 2.4 1.670589948e-14 1 -5.274119944e-14
-0.6 3.8 2.6 2.373763897e-14 1 -1.051166223e-13
-0.6 3.8 2.8 1.886061786e-14 1 -3.94281931e-14
-0.6 3.8 3 1.520285202e-14 1 -5.731340673e-14
-0.6 3.8 3.2 1.349589463e-14 1 -1.38448539e-13
-0.6 3.8 3.4 1.589517827e-14 0.9913436094 0.1312929859
-0.6 3.8 3.6 1.402003039e-14 0.9294466674 0.3689564912
-0.6 3.8 3.8 -0.007472111874 0.7102223772 0.7039377404
-0.4 -4 -4 -0.01773512427 -0.7730016777 -0.634156031
-0.4 -4 -3.8 -0.04545697853 -0.9321056145 -0.3593226776
-0.4 -4 -3.6 -0.03080395031 -0.9810877855 -0.1910965038
-0.4 -4 -3.4 0 -1 0
-0.4 -4 -3.2 0 -1 0
-0.4 -4 -3 0 -1 0
-0.4 -4 -2.8 0 -1 0
-0.4 -4 -2.6 0 -1 0
-0.4 -4 -2.4 0 -1 0
-0.4 -4 -2.2 0 -1 0
-0.4 -4 -2 0 -1 0
-0.4 -4 -1.8 0 -1 0
-0.4 -4 -1.6 0 -1 0
-0.4 -4 -1.4 0 -1 0
-0.4 -4 -1.2 0 -1 0
-0.4 -4 -1 0 -1 0
-0.4 -4 -0.8 0 -1 0
-0.4 -4 -0.6 0 -1 0
-0.4 -4 -0.4 0 -1 0
-0.4 -4 -0.2 0 -1 0
-0.4 -4 0 0 -1 0
-0.4 -4 0.2 0 -1 0
-0.4 -4 0.4 0 -1 0
-0.4 -4 0.6 0 -1 0
-0.4 -4 0.8 0 -1 0
-0.4 -4 1 0 -1 0
-0.4 -4 1.2 0 -1 0
-0.4 -4 1.4 0 -1 0
-0.4 -4 1.6 0 -1 0
-0.4 -4 1.8 0 -1 0
-0.4 -4 2 0 -1 0
-0.4 -4 2.2 0 -1 0
-0.4 -4 2.4 0 -1 0
-0.4 -4 2.6 0 -1 0
-0.4 -4 2.8 0 -1 0
-0.4 -4 3 0 -1 0
-0.4 -4 3.2 0 -1 0
-0.4 -4 3.4 4.647375262e-16 -0.9913436094 0.1312929859
-0.4 -4 3.6 4.468561476e-15 -0.894427191 0.4472135955
-0.4 -4 3.8 -0.01773512427 -0.634156031 0.7730016777
-0.4 -3.8 -4 -0.04545697853 -0.3593226776 -0.9321056145
-0.4 -3.8 3.8 0.02305656781 -0.3231275176 0.9460745224
-0.4 -3.6 -4 -0.03080395031 -0.1910965038 -0.9810877855
-0.4 -3.6 3.8 -0.02066686099 -0.1593316223 0.9870087715
-0.4 -3.4 -4 0 0 -1
-0.4 -3.4 3.8 1.23565216e-14 9.710737642e-14 1
-0.4 -3.2 -4 -0 -0 -1
-0.4 -3.2 3.8 1.012192097e-14 1.038364043e-13 1
-0.4 -3 -4 0 0 -1
-0.4 -3 3.8 1.428735948e-14 5.26497553e-14 1
-0.4 -2.8 -4 0 0 -1
-0.4 -2.8 3.8 1.428735948e-14 5.26497553e-14 1
-0.4 -2.6 -4 0 0 -1
-0.4 -2.6 3.8 1.890055898e-14 1.04933734e-13 1
-0.4 -2.4 -4 -0 -0 -1
-0.4 -2.4 3.8 9.166487312e-15 6.913282536e-14 1
-0.4 -2.2 -4 -0 -0 -1
-0.4 -2.2 3.8 1.158502731e-14 6.904138121e-14 1
-0.4 -2 -4 -0 -0 -1
-0.4 -2 3.8 7.479500483e-15 5.182675798e-14 1
-0.4 -1.8 -4 0 0 -1
-0.4 -1.8 3.8 1.15030429e-14 4.385955539e-14 1
-0.4 -1.6 -4 0 0 -1
-0.4 -1.6 3.8 1.597434631e-14 3.534368792e-14 1
-0.4 -1.4 -4 -0 -0 -1
-0.4 -1.4 3.8 7.235649427e-15 3.833086335e-14 1
-0.4 -1.2 -4 0 0 -1
-0.4 -1.2 3.8 1.062959365e-14 3.433780231e-14 1
-0.4 -1 -4 -0 -0 -1
-0.4 -1 3.8 8.759718525e-15 2.138111282e-14 1
-0.4 -0.8 -4 0 0 -1
-0.4 -0.8 3.8 1.132015461e-14 3.951017751e-14 1
-0.4 -0.6 -4 0 0 -1
-0.4 -0.6 3.8 1.227558827e-14 4.80659861e-15 1
-0.4 -0.4 -4 -0 -0 -1
-0.4 -0.4 3.8 1.163547925e-14 1.041622397e-14 1
-0.4 -0.2 -4 -0 -0 -1
-0.4 -0.2 3.8 1.195553376e-14 2.804812681e-15 1
-0.4 0 -4 -0 -0 -1
-0.4 0 3.8 1.447123316e-14 4.027615361e-16 1
-0.4 0.2 -4 -0 -0 -1
-0.4 0.2 3.8 1.227558827e-14 -4.80659861e-15 1
-0.4 0.4 -4 0 0 -1
-0.4 0.4 3.8 1.15440351e-14 -1.259091291e-14 1
-0.4 0.6 -4 0 0 -1
-0.4 0.6 3.8 1.39625751e-14 -1.249946877e-14 1
-0.4 0.8 -4 0 0 -1
-0.4 0.8 3.8 1.304813364e-14 -3.424635817e-14 1
-0.4 1 -4 -0 -0 -1
-0.4 1 3.8 1.560856973e-14 -2.664493216e-14 1
-0.4 1.2 -4 -0 -0 -1
-0.4 1.2 3.8 1.597434631e-14 -3.534368792e-14 1
-0.4 1.4 -4 -0 -0 -1
-0.4 1.4 3.8 1.15030429e-14 -4.385955539e-14 1
-0.4 1.6 -4 0 0 -1
-0.4 1.6 3.8 1.341391022e-14 -2.554760241e-14 1
-0.4 1.8 -4 0 0 -1
-0.4 1.8 3.8 1.231658047e-14 -5.164386969e-14 1
-0.4 2 -4 -0 -0 -1
-0.4 2 3.8 1.670589948e-14 -5.274119944e-14 1
-0.4 2.2 -4 -0 -0 -1
-0.4 2.2 3.8 1.670589948e-14 -5.274119944e-14 1
-0.4 2.4 -4 0 0 -1
-0.4 2.4 3.8 7.479500483e-15 -5.182675798e-14 1
-0.4 2.6 -4 0 0 -1
-0.4 2.6 3.8 8.65881464e-15 -1.386314273e-13 1
-0.4 2.8 -4 0 0 -1
-0.4 2.8 3.8 1.304813364e-14 -3.424635817e-14 1
-0.4 3 -4 -0 -0 -1
-0.4 3 3.8 1.670589948e-14 -5.274119944e-14 1
-0.4 3.2 -4 -0 -0 -1
-0.4 3.2 3.8 2.036366531e-14 -1.397287571e-13 1
-0.4 3.4 -4 4.647375262e-16 0.1312929859 -0.9913436094
-0.4 3.4 3.8 1.052717113e-14 0.1312929859 0.9913436094
-0.4 3.6 -4 4.468561476e-15 0.4472135955 -0.894427191
-0.4 3.6 3.8 1.302404136e-14 0.3689564912 0.9294466674
-0.4 3.8 -4 -0.01773512427 0.7730016777 -0.634156031
-0.4 3.8 -3.8 0.02305656781 0.9460745224 -0.3231275176
-0.4 3.8 -3.6 -0.02066686099 0.9870087715 -0.1593316223
-0.4 3.8 -3.4 1.23565216e-14 1 9.710737642e-14
-0.4 3.8 -3.2 1.012192097e-14 1 1.038364043e-13
-0.4 3.8 -3 1.428735948e-14 1 5.26497553e-14
-0.4 3.8 -2.8 1.428735948e-14 1 5.26497553e-14
-0.4 3.8 -2.6 1.890055898e-14 1 1.04933734e-13
-0.4 3.8 -2.4 5.772543093e-15 1 7.702750329e-14
-0.4 3.8 -2.2 1.158502731e-14 1 6.904138121e-14
-0.4 3.8 -2 7.479500483e-15 1 5.182675798e-14
-0.4 3.8 -1.8 1.355580631e-14 1 3.525224377e-14
-0.4 3.8 -1.6 1.597434631e-14 1 3.534368792e-14
-0.4 3.8 -1.4 7.235649427e-15 1 3.833086335e-14
-0.4 3.8 -1.2 1.026381706e-14 1 4.303655808e-14
-0.4 3.8 -1 8.759718525e-15 1 2.138111282e-14
-0.4 3.8 -0.8 1.337291802e-14 1 3.090286589e-14
-0.4 3.8 -0.6 1.227558827e-14 1 4.80659861e-15
-0.4 3.8 -0.4 8.241535032e-15 1 1.17269234e-14
-0.4 3.8 -0.2 1.195553376e-14 1 2.804812681e-15
-0.4 3.8 0 1.447123316e-14 1 4.027615361e-16
-0.4 3.8 0.2 1.227558827e-14 1 -4.80659861e-15
-0.4 3.8 0.4 1.15440351e-14 1 -1.259091291e-14
-0.4 3.8 0.6 1.39625751e-14 1 -1.249946877e-14
-0.4 3.8 0.8 1.304813364e-14 1 -3.424635817e-14
-0.4 3.8 1 1.560856973e-14 1 -2.664493216e-14
-0.4 3.8 1.2 1.597434631e-14 1 -3.534368792e-14
-0.4 3.8 1.4 1.113726632e-14 1 -3.516079963e-14
-0.4 3.8 1.6 1.341391022e-14 1 -2.554760241e-14
-0.4 3.8 1.8 1.231658047e-14 1 -5.164386969e-14
-0.4 3.8 2 1.670589948e-14 1 -5.274119944e-14
-0.4 3.8 2.2 1.670589948e-14 1 -5.274119944e-14
-0.4 3.8 2.4 6.747947316e-15 1 -6.92242695e-14
-0.4 3.8 2.6 9.390367807e-15 1 -1.212339158e-13
-0.4 3.8 2.8 1.304813364e-14 1 -3.424635817e-14
-0.4 3.8 3 1.670589948e-14 1 -5.274119944e-14
-0.4 3.8 3.2 2.036366531e-14 1 -1.397287571e-13
-0.4 3.8 3.4 1.052717113e-14 0.9913436094 0.1312929859
-0.4 3.8 3.6 1.302404136e-14 0.9294466674 0.3689564912
-0.4 3.8 3.8 0.007472111874 0.7102223772 0.7039377404
-0.2 -4 -4 0.01773512427 -0.7730016777 -0.634156031
-0.2 -4 -3.8 -0.04545697853 -0.9321056145 -0.3593226776
-0.2 -4 -3.6 0.03080395031 -0.9810877855 -0.1910965038
-0.2 -4 -3.4 0 -1 0
-0.2 -4 -3.2 0 -1 0
-0.2 -4 -3 0 -1 0
-0.2 -4 -2.8 0 -1 0
-0.2 -4 -2.6 0 -1 0
-0.2 -4 -2.4 0 -1 0
-0.2 -4 -2.2 0 -1 0
-0.2 -4 -2 0 -1 0
-0.2 -4 -1.8 0 -1 0
-0.2 -4 -1.6 0 -1 0
-0.2 -4 -1.4 0 -1 0
-0.2 -4 -1.2 0 -1 0
-0.2 -4 -1 0 -1 0
-0.2 -4 -0.8 0 -1 0
-0.2 -4 -0.6 0 -1 0
-0.2 -4 -0.4 0 -1 0
-0.2 -4 -0.2 0 -1 0
-0.2 -4 0 0 -1 0
-0.2 -4 0.2 0 -1 0
-0.2 -4 0.4 0 -1 0
-0.2 -4 0.6 0 -1 0
-0.2 -4 0.8 0 -1 0
-0.2 -4 1 0 -1 0
-0.2 -4 1.2 0 -1 0
-0.2 -4 1.4 0 -1 0
-0.2 -4 1.6 0 -1 0
-0.2 -4 1.8 0 -1 0
-0.2 -4 2 0 -1 0
-0.2 -4 2.2 0 -1 0
-0.2 -4 2.4 0 -1 0
-0.2 -4 2.6 0 -1 0
-0.2 -4 2.8 0 -1 0
-0.2 -4 3 0 -1 0
-0.2 -4 3.2 0 -1 0
-0.2 -4 3.4 3.741425805e-15 -0.9913436094 0.1312929859
-0.2 -4 3.6 -1.489520492e-15 -0.894427191 0.4472135955
-0.2 -4 3.8 0.01773512427 -0.634156031 0.7730016777
-0.2 -3.8 -4 -0.04545697853 -0.3593226776 -0.9321056145
-0.2 -3.8 3.8 0.02305656781 -0.3231275176 0.9460745224
-0.2 -3.6 -4 0.03080395031 -0.1910965038 -0.9810877855
-0.2 -3.6 3.8 -0.02066686099 -0.1593316223 0.9870087715
-0.2 -3.4 -4 0 0 -1
-0.2 -3.4 3.8 3.657765835e-15 9.674159984e-14 1
-0.2 -3.2 -4 0 0 -1
-0.2 -3.2 3.8 4.389319002e-15 1.043850691e-13 1
-0.2 -3 -4 -0 -0 -1
-0.2 -3 3.8 -9.853895029e-16 5.214681249e-14 1
-0.2 -2.8 -4 -0 -0 -1
-0.2 -2.8 3.8 -2.926212668e-15 6.959004609e-14 1
-0.2 -2.6 -4 -0 -0 -1
-0.2 -2.6 3.8 -3.180049004e-15 1.043393471e-13 1
-0.2 -2.4 -4 -0 -0 -1
-0.2 -2.4 3.8 4.745110305e-15 9.678732191e-14 1
-0.2 -2.2 -4 0 0 -1
-0.2 -2.2 3.8 2.926212668e-15 6.959004609e-14 1
-0.2 -2 -4 0 0 -1
-0.2 -2 3.8 3.403929499e-15 5.223825664e-14 1
-0.2 -1.8 -4 -0 -0 -1
-0.2 -1.8 3.8 -1.828882917e-15 4.34937788e-14 1
-0.2 -1.6 -4 -0 -0 -1
-0.2 -1.6 3.8 -1.828882917e-15 4.34937788e-14 1
-0.2 -1.4 -4 -0 -0 -1
-0.2 -1.4 3.8 2.16470366e-15 2.888531373e-14 1
-0.2 -1.2 -4 0 0 -1
-0.2 -1.2 3.8 5.456692911e-15 5.818212612e-14 1
-0.2 -1 -4 0 0 -1
-0.2 -1 3.8 2.123711457e-15 2.179261148e-14 1
-0.2 -0.8 -4 0 0 -1
-0.2 -0.8 3.8 -4.367246277e-16 3.909867885e-14 1
-0.2 -0.6 -4 -0 -0 -1
-0.2 -0.6 3.8 1.026381706e-15 4.303655808e-15 1
-0.2 -0.4 -4 -0 -0 -1
-0.2 -0.4 3.8 -4.572207293e-16 1.209269998e-14 1
-0.2 -0.2 -4 0 0 -1
-0.2 -0.2 3.8 1.224510689e-15 3.673532067e-15 1
-0.2 0 -4 0 0 -1
-0.2 0 3.8 1.237846294e-15 7.253123668e-16 1
-0.2 0.2 -4 0 0 -1
-0.2 0.2 3.8 1.026381706e-15 -4.303655808e-15 1
-0.2 0.4 -4 -0 -0 -1
-0.2 0.4 3.8 1.757934873e-15 -1.309385571e-14 1
-0.2 0.6 -4 -0 -0 -1
-0.2 0.6 3.8 1.757934873e-15 -1.309385571e-14 1
-0.2 0.8 -4 -0 -0 -1
-0.2 0.8 3.8 2.672376332e-15 -3.484074512e-14 1
-0.2 1 -4 0 0 -1
-0.2 1 3.8 -1.09732975e-15 -2.609626728e-14 1
-0.2 1.2 -4 0 0 -1
-0.2 1.2 3.8 -1.463106334e-15 -3.479502304e-14 1
-0.2 1.4 -4 0 0 -1
-0.2 1.4 3.8 -2.538363359e-16 -3.474930097e-14 1
-0.2 1.6 -4 -0 -0 -1
-0.2 1.6 3.8 1.463106334e-15 -3.479502304e-14 1
-0.2 1.8 -4 -0 -0 -1
-0.2 1.8 3.8 3.403929499e-15 -5.223825664e-14 1
-0.2 2 -4 0 0 -1
-0.2 2 3.8 -2.194659501e-15 -5.219253457e-14 1
-0.2 2.2 -4 0 0 -1
-0.2 2.2 3.8 -9.853895029e-16 -5.214681249e-14 1
-0.2 2.4 -4 -0 -0 -1
-0.2 2.4 3.8 4.135482666e-15 -6.963576816e-14 1
-0.2 2.6 -4 -0 -0 -1
-0.2 2.6 3.8 6.330142167e-15 -1.218283027e-13 1
-0.2 2.8 -4 -0 -0 -1
-0.2 2.8 3.8 2.672376332e-15 -3.484074512e-14 1
-0.2 3 -4 0 0 -1
-0.2 3 3.8 -9.853895029e-16 -5.214681249e-14 1
-0.2 3.2 -4 0 0 -1
-0.2 3.2 3.8 -5.852425336e-15 -1.391800922e-13 1
-0.2 3.4 -4 2.323687631e-16 0.1312929859 -0.9913436094
-0.2 3.4 3.8 5.495954326e-15 0.1312929859 0.9913436094
-0.2 3.6 -4 -1.489520492e-15 0.4472135955 -0.894427191
-0.2 3.6 3.8 1.254509283e-15 0.3689564912 0.9294466674
-0.2 3.8 -4 0.01773512427 0.7730016777 -0.634156031
-0.2 3.8 -3.8 0.02305656781 0.9460745224 -0.3231275176
-0.2 3.8 -3.6 -0.02066686099 0.9870087715 -0.1593316223
-0.2 3.8 -3.4 3.657765835e-15 1 9.674159984e-14
-0.2 3.8 -3.2 4.389319002e-15 1 1.043850691e-13
-0.2 3.8 -3 -9.853895029e-16 1 5.214681249e-14
-0.2 3.8 -2.8 -2.926212668e-15 1 6.959004609e-14
-0.2 3.8 -2.6 -4.389319002e-15 1 1.043850691e-13
-0.2 3.8 -2.4 4.745110305e-15 1 9.678732191e-14
-0.2 3.8 -2.2 2.926212668e-15 1 6.959004609e-14
-0.2 3.8 -2 3.403929499e-15 1 5.223825664e-14
-0.2 3.8 -1.8 -6.196129194e-16 1 4.344805673e-14
-0.2 3.8 -1.6 -2.538363359e-16 1 3.474930097e-14
-0.2 3.8 -1.4 2.16470366e-15 1 2.888531373e-14
-0.2 3.8 -1.2 5.090916328e-15 1 4.850796614e-14
-0.2 3.8 -1 2.123711457e-15 1 2.179261148e-14
-0.2 3.8 -0.8 -1.280218042e-15 1 3.044564516e-14
-0.2 3.8 -0.6 -1.828882917e-16 1 4.34937788e-15
-0.2 3.8 -0.4 2.713368535e-15 1 1.437407376e-14
-0.2 3.8 -0.2 3.26203341e-15 1 1.371662188e-16
-0.2 3.8 0 1.243561553e-15 1 8.612304255e-16
-0.2 3.8 0.2 1.026381706e-15 1 -4.303655808e-15
-0.2 3.8 0.4 1.757934873e-15 1 -1.309385571e-14
-0.2 3.8 0.6 1.757934873e-15 1 -1.309385571e-14
-0.2 3.8 0.8 2.672376332e-15 1 -3.484074512e-14
-0.2 3.8 1 1.119402475e-16 1 -2.605054521e-14
-0.2 3.8 1.2 -1.463106334e-15 1 -3.479502304e-14
-0.2 3.8 1.4 1.119402475e-16 1 -2.605054521e-14
-0.2 3.8 1.6 2.306599748e-15 1 -2.614198936e-14
-0.2 3.8 1.8 3.403929499e-15 1 -5.223825664e-14
-0.2 3.8 2 -9.853895029e-16 1 -5.214681249e-14
-0.2 3.8 2.2 -2.194659501e-15 1 -5.219253457e-14
-0.2 3.8 2.4 3.403929499e-15 1 -5.223825664e-14
-0.2 3.8 2.6 5.852425336e-15 1 -1.391800922e-13
-0.2 3.8 2.8 1.463106334e-15 1 -3.479502304e-14
-0.2 3.8 3 -9.853895029e-16 1 -5.214681249e-14
-0.2 3.8 3.2 -5.852425336e-15 1 -1.391800922e-13
-0.2 3.8 3.4 5.495954326e-15 0.9913436094 0.1312929859
-0.2 3.8 3.6 1.254509283e-15 0.9294466674 0.3689564912
-0.2 3.8 3.8 0.007472111874 0.7102223772 0.7039377404
0 -4 -4 0.007472111874 -0.7102223772 -0.7039377404
0 -4 -3.8 0.02305656781 -0.9460745224 -0.3231275176
0 -4 -3.6 0.006781004935 -0.9893648346 -0.1452970821
0 -4 -3.4 0 -1 0
0 -4 -3.2 0 -1 0
0 -4 -3 0 -1 0
0 -4 -2.8 0 -1 0
0 -4 -2.6 0 -1 0
0 -4 -2.4 0 -1 0
0 -4 -2.2 0 -1 0
0 -4 -2 0 -1 0
0 -4 -1.8 0 -1 0
0 -4 -1.6 0 -1 0
0 -4 -1.4 0 -1 0
0 -4 -1.2 0 -1 0
0 -4 -1 0 -1 0
0 -4 -0.8 0 -1 0
0 -4 -0.6 0 -1 0
0 -4 -0.4 0 -1 0
0 -4 -0.2 0 -1 0
0 -4 0 0 -1 0
0 -4 0.2 0 -1 0
0 -4 0.4 0 -1 0
0 -4 0.6 0 -1 0
0 -4 0.8 0 -1 0
0 -4 1 0 -1 0
0 -4 1.2 0 -1 0
0 -4 1.4 0 -1 0
0 -4 1.6 0 -1 0
0 -4 1.8 0 -1 0
0 -4 2 0 -1 0
0 -4 2.2 0 -1 0
0 -4 2.4 0 -1 0
0 -4 2.6 0 -1 0
0 -4 2.8 0 -1 0
0 -4 3 0 -1 0
0 -4 3.2 0 -1 0
0 -4 3.4 -1.084974512e-16 -0.9913436094 0.1312929859
0 -4 3.6 -0.01420460716 -0.9113855996 0.4113083003
0 -4 3.8 0.007472111874 -0.7039377404 0.7102223772
0 -3.8 -4 0.02305656781 -0.3231275176 -0.9460745224
0 -3.8 3.8 0.02305656781 -0.3231275176 0.9460745224
0 -3.6 -4 0.006781004935 -0.1452970821 -0.9893648346
0 -3.6 3.8 0.006781004935 -0.1452970821 0.9893648346
0 -3.4 -4 0 0 -1
0 -3.4 3.8 4.609192246e-15 9.678160665e-14 1
0 -3.2 -4 -0 -0 -1
0 -3.2 3.8 -3.053130836e-15 8.696469657e-14 1
0 -3 -4 0 0 -1
0 -3 3.8 3.010167853e-15 5.807925146e-14 1
0 -2.8 -4 0 0 -1
0 -2.8 3.8 2.64813575e-15 5.220968034e-14 1
0 -2.6 -4 0 0 -1
0 -2.6 3.8 5.340745413e-15 1.161299266e-13 1
0 -2.4 -4 0 0 -1
0 -2.4 3.8 -2.110704315e-15 7.735898831e-14 1
0 -2.2 -4 -0 -0 -1
0 -2.2 3.8 -2.472736419e-15 6.957290031e-14 1
0 -2 -4 -0 -0 -1
0 -2 3.8 -2.472736419e-15 6.957290031e-14 1
0 -1.8 -4 -0 -0 -1
0 -1.8 3.8 -1.379151148e-15 5.801066835e-14 1
