# .PCD v0.7 - Point Cloud Data file format
VERSION 0.7
FIELDS x y z normal_x normal_y normal_z
SIZE 4 4 4 4 4 4
TYPE F F F F F F
COUNT 1 1 1 1 1 1
WIDTH 1141
HEIGHT 1
VIEWPOINT 0 0 0 1 0 0 0
POINTS 1141
DATA ascii
-3.74 3.54 -3.48 -0.4111747114 0.9029270905 -0.125132034
-3.74 3.54 -3.22 -0.4113083003 0.9113855996 0.01420460716
-3.74 3.54 -2.96 -0.4472135955 0.894427191 -1.410196915e-14
-3.74 3.54 -2.7 -0.4113083003 0.9113855996 -0.01420460716
-3.74 3.54 -2.44 -0.4472135955 0.894427191 -4.230590746e-14
-3.74 3.54 -2.18 -0.4113083003 0.9113855996 0.01420460716
-3.74 3.54 -1.92 -0.4472135955 0.894427191 1.057647687e-14
-3.74 3.54 -1.66 -0.4113083003 0.9113855996 -0.01420460716
-3.74 3.54 -1.4 -0.4472135955 0.894427191 -7.050984577e-15
-3.74 3.54 -1.14 -0.4113083003 0.9113855996 0.01420460716
-3.74 3.54 -0.88 -0.4472135955 0.894427191 -1.762746144e-15
-3.74 3.54 -0.62 -0.4113083003 0.9113855996 -0.01420460716
-3.74 3.54 -0.36 -0.4472135955 0.894427191 8.813730722e-16
-3.74 3.54 -0.1 -0.4113083003 0.9113855996 0.01420460716
-3.74 3.54 0.16 -0.4472135955 0.894427191 2.644119216e-15
-3.74 3.54 0.42 -0.4113083003 0.9113855996 -0.01420460716
-3.74 3.54 0.68 -0.4113083003 0.9113855996 -0.01420460716
-3.74 3.54 0.94 -0.4472135955 0.894427191 1.939020759e-14
-3.74 3.54 1.2 -0.4472135955 0.894427191 -7.050984577e-15
-3.74 3.54 1.46 -0.4472135955 0.894427191 7.050984577e-15
-3.74 3.54 1.72 -0.4113083003 0.9113855996 0.01420460716
-3.74 3.54 1.98 -0.4113083003 0.9113855996 0.01420460716
-3.74 3.54 2.24 -0.4472135955 0.894427191 3.525492289e-14
-3.74 3.54 2.5 -0.4113083003 0.9113855996 -0.01420460716
-3.74 3.54 2.76 -0.4113083003 0.9113855996 -0.01420460716
-3.74 3.54 3.02 -0.4111747114 0.9029270905 0.125132034
-3.74 3.54 3.28 -0.3365981372 0.8794335609 0.3365981372
-3.74 3.54 3.54 -0.3383021866 0.6564218113 0.6742863162
-3.48 -4 -4 -0.1388528873 -0.6056566021 -0.7835176807
-3.48 -4 -3.74 -0.125132034 -0.9029270905 -0.4111747114
-3.48 -4 -3.48 -0.1460658064 -0.9784321951 -0.1460658064
-3.48 -4 -3.22 -0.1593316223 -0.9870087715 0.02066686099
-3.48 -4 -2.96 -0.1312929859 -0.9913436094 2.101080281e-14
-3.48 -4 -2.7 -0.1593316223 -0.9870087715 -0.02066686099
-3.48 -4 -2.44 -0.1452970821 -0.9893648346 0.006781004935
-3.48 -4 -2.18 -0.1593316223 -0.9870087715 0.02066686099
-3.48 -4 -1.92 -0.1312929859 -0.9913436094 -1.050540141e-14
-3.48 -4 -1.66 -0.1593316223 -0.9870087715 -0.02066686099
-3.48 -4 -1.4 -0.1452970821 -0.9893648346 -0.006781004935
-3.48 -4 -1.14 -0.1593316223 -0.9870087715 0.02066686099
-3.48 -4 -0.88 -0.1312929859 -0.9913436094 6.352671179e-15
-3.48 -4 -0.62 -0.1593316223 -0.9870087715 -0.02066686099
-3.48 -4 -0.36 -0.1452970821 -0.9893648346 0.006781004935
-3.48 -4 -0.1 -0.1452970821 -0.9893648346 -0.006781004935
-3.48 -4 0.16 -0.1593316223 -0.9870087715 0.02066686099
-3.48 -4 0.42 -0.1593316223 -0.9870087715 -0.02066686099
-3.48 -4 0.68 -0.1452970821 -0.9893648346 0.006781004935
-3.48 -4 0.94 -0.1593316223 -0.9870087715 0.02066686099
-3.48 -4 1.2 -0.1312929859 -0.9913436094 -8.305460454e-15
-3.48 -4 1.46 -0.1593316223 -0.9870087715 -0.02066686099
-3.48 -4 1.72 -0.1452970821 -0.9893648346 -0.006781004935
-3.48 -4 1.98 -0.1452970821 -0.9893648346 -0.006781004935
-3.48 -4 2.24 -0.1593316223 -0.9870087715 -0.02066686099
-3.48 -4 2.5 -0.1452970821 -0.9893648346 0.006781004935
-3.48 -4 2.76 -0.1452970821 -0.9893648346 0.006781004935
-3.48 -4 3.02 -0.09671166467 -0.9851048913 0.142180192
-3.48 -4 3.28 -0.125132034 -0.9029270905 0.4111747114
-3.48 -4 3.54 -0.1388528873 -0.6056566021 0.7835176807
-3.48 -3.74 -4 -0.125132034 -0.4111747114 -0.9029270905
-3.48 -3.74 3.54 -0.125132034 -0.4111747114 0.9029270905
-3.48 -3.48 -4 -0.1460658064 -0.1460658064 -0.9784321951
-3.48 -3.48 3.54 -0.1460658064 -0.1460658064 0.9784321951
-3.48 -3.22 -4 -0.1593316223 0.02066686099 -0.9870087715
-3.48 -3.22 3.54 -0.1593316223 0.02066686099 0.9870087715
-3.48 -2.96 -4 -0.1312929859 2.101080281e-14 -0.9913436094
-3.48 -2.96 3.54 -0.1910965038 0.03080395031 0.9810877855
-3.48 -2.7 -4 -0.1593316223 -0.02066686099 -0.9870087715
-3.48 -2.7 3.54 -0.1910965038 -0.03080395031 0.9810877855
-3.48 -2.44 -4 -0.1452970821 0.006781004935 -0.9893648346
-3.48 -2.44 3.54 -0.1910965038 0.03080395031 0.9810877855
-3.48 -2.18 -4 -0.1593316223 0.02066686099 -0.9870087715
-3.48 -2.18 3.54 -0.1593316223 0.02066686099 0.9870087715
-3.48 -1.92 -4 -0.1312929859 -1.050540141e-14 -0.9913436094
-3.48 -1.92 3.54 -0.1910965038 0.03080395031 0.9810877855
-3.48 -1.66 -4 -0.1593316223 -0.02066686099 -0.9870087715
-3.48 -1.66 3.54 -0.1910965038 -0.03080395031 0.9810877855
-3.48 -1.4 -4 -0.1452970821 -0.006781004935 -0.9893648346
-3.48 -1.4 3.54 -0.1910965038 -0.03080395031 0.9810877855
-3.48 -1.14 -4 -0.1593316223 0.02066686099 -0.9870087715
-3.48 -1.14 3.54 -0.1593316223 0.02066686099 0.9870087715
-3.48 -0.88 -4 -0.1312929859 6.352671179e-15 -0.9913436094
-3.48 -0.88 3.54 -0.1910965038 0.03080395031 0.9810877855
-3.48 -0.62 -4 -0.1593316223 -0.02066686099 -0.9870087715
-3.48 -0.62 3.54 -0.1593316223 -0.02066686099 0.9870087715
-3.48 -0.36 -4 -0.1452970821 0.006781004935 -0.9893648346
-3.48 -0.36 3.54 -0.1910965038 -0.03080395031 0.9810877855
-3.48 -0.1 -4 -0.1452970821 -0.006781004935 -0.9893648346
-3.48 -0.1 3.54 -0.1452970821 -0.006781004935 0.9893648346
-3.48 0.16 -4 -0.1593316223 0.02066686099 -0.9870087715
-3.48 0.16 3.54 -0.1593316223 0.02066686099 0.9870087715
-3.48 0.42 -4 -0.1593316223 -0.02066686099 -0.9870087715
-3.48 0.42 3.54 -0.1593316223 -0.02066686099 0.9870087715
-3.48 0.68 -4 -0.1452970821 0.006781004935 -0.9893648346
-3.48 0.68 3.54 -0.1452970821 0.006781004935 0.9893648346
-3.48 0.94 -4 -0.1593316223 0.02066686099 -0.9870087715
-3.48 0.94 3.54 -0.1910965038 0.03080395031 0.9810877855
-3.48 1.2 -4 -0.1312929859 -1.661092091e-14 -0.9913436094
-3.48 1.2 3.54 -0.1910965038 0.03080395031 0.9810877855
-3.48 1.46 -4 -0.1593316223 -0.02066686099 -0.9870087715
-3.48 1.46 3.54 -0.1910965038 -0.03080395031 0.9810877855
-3.48 1.72 -4 -0.1452970821 -0.006781004935 -0.9893648346
-3.48 1.72 3.54 -0.1452970821 -0.006781004935 0.9893648346
-3.48 1.98 -4 -0.1452970821 -0.006781004935 -0.9893648346
-3.48 1.98 3.54 -0.1452970821 -0.006781004935 0.9893648346
-3.48 2.24 -4 -0.1593316223 -0.02066686099 -0.9870087715
-3.48 2.24 3.54 -0.1593316223 -0.02066686099 0.9870087715
-3.48 2.5 -4 -0.1452970821 0.006781004935 -0.9893648346
-3.48 2.5 3.54 -0.1452970821 0.006781004935 0.9893648346
-3.48 2.76 -4 -0.1452970821 0.006781004935 -0.9893648346
-3.48 2.76 3.54 -0.1452970821 0.006781004935 0.9893648346
-3.48 3.02 -4 -0.09671166467 0.142180192 -0.9851048913
-3.48 3.02 3.54 -0.1460658064 0.1460658064 0.9784321951
-3.48 3.28 -4 -0.125132034 0.4111747114 -0.9029270905
-3.48 3.28 3.54 -0.125132034 0.4111747114 0.9029270905
-3.48 3.54 -4 -0.1388528873 0.6056566021 -0.7835176807
-3.48 3.54 -3.74 -0.125132034 0.9029270905 -0.4111747114
-3.48 3.54 -3.48 -0.1460658064 0.9784321951 -0.1460658064
-3.48 3.54 -3.22 -0.1593316223 0.9870087715 0.02066686099
-3.48 3.54 -2.96 -0.1910965038 0.9810877855 0.03080395031
-3.48 3.54 -2.7 -0.1910965038 0.9810877855 -0.03080395031
-3.48 3.54 -2.44 -0.1910965038 0.9810877855 -0.03080395031
-3.48 3.54 -2.18 -0.1593316223 0.9870087715 0.02066686099
-3.48 3.54 -1.92 -0.1910965038 0.9810877855 0.03080395031
-3.48 3.54 -1.66 -0.1910965038 0.9810877855 -0.03080395031
-3.48 3.54 -1.4 -0.1910965038 0.9810877855 -0.03080395031
-3.48 3.54 -1.14 -0.1593316223 0.9870087715 0.02066686099
-3.48 3.54 -0.88 -0.1910965038 0.9810877855 0.03080395031
-3.48 3.54 -0.62 -0.1593316223 0.9870087715 -0.02066686099
-3.48 3.54 -0.36 -0.1910965038 0.9810877855 -0.03080395031
-3.48 3.54 -0.1 -0.1452970821 0.9893648346 -0.006781004935
-3.48 3.54 0.16 -0.1593316223 0.9870087715 0.02066686099
-3.48 3.54 0.42 -0.1593316223 0.9870087715 -0.02066686099
-3.48 3.54 0.68 -0.1452970821 0.9893648346 0.006781004935
-3.48 3.54 0.94 -0.1593316223 0.9870087715 0.02066686099
-3.48 3.54 1.2 -0.1910965038 0.9810877855 0.03080395031
-3.48 3.54 1.46 -0.1593316223 0.9870087715 -0.02066686099
-3.48 3.54 1.72 -0.1452970821 0.9893648346 -0.006781004935
-3.48 3.54 1.98 -0.1452970821 0.9893648346 -0.006781004935
-3.48 3.54 2.24 -0.1593316223 0.9870087715 -0.02066686099
-3.48 3.54 2.5 -0.1452970821 0.9893648346 0.006781004935
-3.48 3.54 2.76 -0.1452970821 0.9893648346 0.006781004935
-3.48 3.54 3.02 -0.1460658064 0.9784321951 0.1460658064
-3.48 3.54 3.28 -0.125132034 0.9029270905 0.4111747114
-3.48 3.54 3.54 -0.1388528873 0.6056566021 0.7835176807
-3.22 -4 -4 -0.007472111874 -0.7039377404 -0.7102223772
-3.22 -4 -3.74 0.01420460716 -0.9113855996 -0.4113083003
-3.22 -4 -3.48 0.02066686099 -0.9870087715 -0.1593316223
-3.22 -4 -3.22 0 -1 0
-3.22 -4 -2.96 0 -1 0
-3.22 -4 -2.7 0 -1 0
-3.22 -4 -2.44 0 -1 0
-3.22 -4 -2.18 0 -1 0
-3.22 -4 -1.92 0 -1 0
-3.22 -4 -1.66 0 -1 0
-3.22 -4 -1.4 0 -1 0
-3.22 -4 -1.14 0 -1 0
-3.22 -4 -0.88 0 -1 0
-3.22 -4 -0.62 0 -1 0
-3.22 -4 -0.36 0 -1 0
-3.22 -4 -0.1 0 -1 0
-3.22 -4 0.16 0 -1 0
-3.22 -4 0.42 0 -1 0
-3.22 -4 0.68 0 -1 0
-3.22 -4 0.94 0 -1 0
-3.22 -4 1.2 0 -1 0
-3.22 -4 1.46 0 -1 0
-3.22 -4 1.72 0 -1 0
-3.22 -4 1.98 0 -1 0
-3.22 -4 2.24 0 -1 0
-3.22 -4 2.5 0 -1 0
-3.22 -4 2.76 0 -1 0
-3.22 -4 3.02 0.02066686099 -0.9870087715 0.1593316223
-3.22 -4 3.28 0.01420460716 -0.9113855996 0.4113083003
-3.22 -4 3.54 -0.007472111874 -0.7039377404 0.7102223772
-3.22 -3.74 -4 0.01420460716 -0.4113083003 -0.9113855996
-3.22 -3.74 3.54 0.01420460716 -0.4113083003 0.9113855996
-3.22 -3.48 -4 0.02066686099 -0.1593316223 -0.9870087715
-3.22 -3.48 3.54 0.02066686099 -0.1593316223 0.9870087715
-3.22 -3.22 -4 -0 -0 -1
-3.22 -3.22 3.54 -3.304751503e-14 -2.958454146e-14 1
-3.22 -2.96 -4 -0 -0 -1
-3.22 -2.96 3.54 -4.031179867e-14 -2.116593329e-14 1
-3.22 -2.7 -4 0 0 -1
-3.22 -2.7 3.54 -4.247615715e-14 -3.60776169e-14 1
-3.22 -2.44 -4 0 0 -1
-3.22 -2.44 3.54 -2.506177856e-14 -5.233767097e-14 1
-3.22 -2.18 -4 -0 -0 -1
-3.22 -2.18 3.54 -2.094949745e-14 -4.545899143e-14 1
-3.22 -1.92 -4 -0 -0 -1
-3.22 -1.92 3.54 -3.944605528e-14 -4.406335337e-14 1
-3.22 -1.66 -4 0 0 -1
-3.22 -1.66 3.54 -4.204328546e-14 -2.462890687e-14 1
-3.22 -1.4 -4 -0 -0 -1
-3.22 -1.4 3.54 -2.246454838e-14 -9.428642123e-15 1
-3.22 -1.14 -4 -0 -0 -1
-3.22 -1.14 3.54 -3.402147635e-14 -6.422174048e-15 1
-3.22 -0.88 -4 -0 -0 -1
-3.22 -0.88 3.54 -4.139397791e-14 -7.455841806e-15 1
-3.22 -0.62 -4 0 0 -1
-3.22 -0.62 3.54 -5.15801455e-14 -5.026535992e-15 1
-3.22 -0.36 -4 0 0 -1
-3.22 -0.36 3.54 -2.3005638e-14 -3.439339772e-15 1
-3.22 -0.1 -4 -0 -0 -1
-3.22 -0.1 3.54 -3.431907564e-14 6.552159945e-16 1
-3.22 0.16 -4 0 0 -1
-3.22 0.16 3.54 -4.131281447e-14 5.309208673e-15 1
-3.22 0.42 -4 0 0 -1
-3.22 0.42 3.54 -5.168836343e-14 7.888713502e-15 1
-3.22 0.68 -4 0 0 -1
-3.22 0.68 3.54 -3.434613012e-14 -1.298615089e-15 1
-3.22 0.94 -4 -0 -0 -1
-3.22 0.94 3.54 -4.182684961e-14 1.890455185e-14 1
-3.22 1.2 -4 -0 -0 -1
-3.22 1.2 3.54 -5.168836343e-14 -7.888713502e-15 1
-3.22 1.46 -4 0 0 -1
-3.22 1.46 3.54 -4.031179867e-14 2.116593329e-14 1
-3.22 1.72 -4 -0 -0 -1
-3.22 1.72 3.54 -3.564474521e-14 3.218177164e-14 1
-3.22 1.98 -4 -0 -0 -1
-3.22 1.98 3.54 -4.774276279e-14 4.805622161e-14 1
-3.22 2.24 -4 -0 -0 -1
-3.22 2.24 3.54 -4.290902885e-14 4.752632694e-14 1
-3.22 2.5 -4 0 0 -1
-3.22 2.5 3.54 -4.363048168e-14 4.974044079e-14 1
-3.22 2.76 -4 0 0 -1
-3.22 2.76 3.54 -3.131602824e-14 7.076208352e-14 1
-3.22 3.02 -4 0.02066686099 0.1593316223 -0.9870087715
-3.22 3.02 3.54 0.02066686099 0.1593316223 0.9870087715
-3.22 3.28 -4 0.01420460716 0.4113083003 -0.9113855996
-3.22 3.28 3.54 0.01420460716 0.4113083003 0.9113855996
-3.22 3.54 -4 -0.007472111874 0.7039377404 -0.7102223772
-3.22 3.54 -3.74 0.01420460716 0.9113855996 -0.4113083003
-3.22 3.54 -3.48 0.02066686099 0.9870087715 -0.1593316223
-3.22 3.54 -3.22 -3.304751503e-14 1 -2.958454146e-14
-3.22 3.54 -2.96 -4.031179867e-14 1 -2.116593329e-14
-3.22 3.54 -2.7 -4.247615715e-14 1 -3.60776169e-14
-3.22 3.54 -2.44 -2.506177856e-14 1 -5.233767097e-14
-3.22 3.54 -2.18 -2.094949745e-14 1 -4.545899143e-14
-3.22 3.54 -1.92 -3.944605528e-14 1 -4.406335337e-14
-3.22 3.54 -1.66 -4.204328546e-14 1 -2.462890687e-14
-3.22 3.54 -1.4 -2.246454838e-14 1 -9.428642123e-15
-3.22 3.54 -1.14 -3.402147635e-14 1 -6.422174048e-15
-3.22 3.54 -0.88 -4.139397791e-14 1 -7.455841806e-15
-3.22 3.54 -0.62 -5.15801455e-14 1 -5.026535992e-15
-3.22 3.54 -0.36 -2.3005638e-14 1 -3.439339772e-15
-3.22 3.54 -0.1 -3.431907564e-14 1 6.552159945e-16
-3.22 3.54 0.16 -4.104226966e-14 1 1.846235102e-15
-3.22 3.54 0.42 -5.130960069e-14 1 2.128907783e-15
-3.22 3.54 0.68 -3.434613012e-14 1 -1.298615089e-15
-3.22 3.54 0.94 -4.150219584e-14 1 1.031801932e-14
-3.22 3.54 1.2 -5.168836343e-14 1 -7.888713502e-15
-3.22 3.54 1.46 -4.031179867e-14 1 2.116593329e-14
-3.22 3.54 1.72 -3.564474521e-14 1 3.218177164e-14
-3.22 3.54 1.98 -4.774276279e-14 1 4.805622161e-14
-3.22 3.54 2.24 -4.290902885e-14 1 4.752632694e-14
-3.22 3.54 2.5 -4.319760998e-14 1 6.003482631e-14
-3.22 3.54 2.76 -3.131602824e-14 1 7.076208352e-14
-3.22 3.54 3.02 0.02066686099 0.9870087715 0.1593316223
-3.22 3.54 3.28 0.01420460716 0.9113855996 0.4113083003
-3.22 3.54 3.54 -0.007472111874 0.7039377404 0.7102223772
-2.96 -4 -4 0.01773512427 -0.7730016777 -0.634156031
-2.96 -4 -3.74 0 -0.894427191 -0.4472135955
-2.96 -4 -3.48 2.101080281e-14 -0.9913436094 -0.1312929859
-2.96 -4 -3.22 0 -1 0
-2.96 -4 -2.96 0 -1 0
-2.96 -4 -2.7 0 -1 0
-2.96 -4 -2.44 0 -1 0
-2.96 -4 -2.18 0 -1 0
-2.96 -4 -1.92 0 -1 0
-2.96 -4 -1.66 0 -1 0
-2.96 -4 -1.4 0 -1 0
-2.96 -4 -1.14 0 -1 0
-2.96 -4 -0.88 0 -1 0
-2.96 -4 -0.62 0 -1 0
-2.96 -4 -0.36 0 -1 0
-2.96 -4 -0.1 0 -1 0
-2.96 -4 0.16 0 -1 0
-2.96 -4 0.42 0 -1 0
-2.96 -4 0.68 0 -1 0
-2.96 -4 0.94 0 -1 0
-2.96 -4 1.2 0 -1 0
-2.96 -4 1.46 0 -1 0
-2.96 -4 1.72 0 -1 0
-2.96 -4 1.98 0 -1 0
-2.96 -4 2.24 0 -1 0
-2.96 -4 2.5 0 -1 0
-2.96 -4 2.76 0 -1 0
-2.96 -4 3.02 0.03080395031 -0.9810877855 0.1910965038
-2.96 -4 3.28 -2.115295373e-14 -0.894427191 0.4472135955
-2.96 -4 3.54 0.01773512427 -0.7730016777 0.634156031
-2.96 -3.74 -4 0 -0.4472135955 -0.894427191
-2.96 -3.74 3.54 -2.820393831e-14 -0.4472135955 0.894427191
-2.96 -3.48 -4 2.101080281e-14 -0.1312929859 -0.9913436094
-2.96 -3.48 3.54 0.03080395031 -0.1910965038 0.9810877855
-2.96 -3.22 -4 -0 -0 -1
-2.96 -3.22 3.54 -3.261464333e-14 -3.987892697e-14 1
-2.96 -2.96 -4 -0 -0 -1
-2.96 -2.96 3.54 -2.958454146e-14 -3.304751503e-14 1
-2.96 -2.7 -4 0 0 -1
-2.96 -2.7 3.54 -2.462890687e-14 -4.204328546e-14 1
-2.96 -2.44 -4 0 0 -1
-2.96 -2.44 3.54 -3.65104886e-14 -5.277054267e-14 1
-2.96 -2.18 -4 -0 -0 -1
-2.96 -2.18 3.54 -3.239820749e-14 -4.502611973e-14 1
-2.96 -1.92 -4 -0 -0 -1
-2.96 -1.92 3.54 -2.936810561e-14 -3.877187005e-14 1
-2.96 -1.66 -4 0 0 -1
-2.96 -1.66 3.54 -2.397959932e-14 -2.660170718e-14 1
-2.96 -1.4 -4 -0 -0 -1
-2.96 -1.4 3.54 -3.412969427e-14 -3.848577669e-15 1
-2.96 -1.14 -4 -0 -0 -1
-2.96 -1.14 3.54 -2.257276631e-14 -6.855045744e-15 1
-2.96 -0.88 -4 0 0 -1
-2.96 -0.88 3.54 -1.007794967e-14 -5.291483323e-15 1
-2.96 -0.62 -4 0 0 -1
-2.96 -0.62 3.54 -2.3005638e-14 -3.439339772e-15 1
-2.96 -0.36 -4 0 0 -1
-2.96 -0.36 3.54 -3.445434804e-14 -3.872211468e-15 1
-2.96 -0.1 -4 -0 -0 -1
-2.96 -0.1 3.54 -2.28703656e-14 2.223442981e-16 1
-2.96 0.16 -4 -0 -0 -1
-2.96 0.16 3.54 -3.074788414e-14 2.279106798e-15 1
-2.96 0.42 -4 0 0 -1
-2.96 0.42 3.54 -2.268098423e-14 4.281449365e-15 1
-2.96 0.68 -4 0 0 -1
-2.96 0.68 3.54 -2.289742008e-14 -8.657433928e-16 1
-2.96 0.94 -4 -0 -0 -1
-2.96 0.94 3.54 -3.120781032e-14 9.885147619e-15 1
-2.96 1.2 -4 0 0 -1
-2.96 1.2 3.54 -3.10995924e-14 -7.022970109e-15 1
-2.96 1.46 -4 0 0 -1
-2.96 1.46 3.54 -3.001741316e-14 2.159880499e-14 1
-2.96 1.72 -4 -0 -0 -1
-2.96 1.72 3.54 -2.419603517e-14 3.174889994e-14 1
-2.96 1.98 -4 -0 -0 -1
-2.96 1.98 3.54 -2.484534271e-14 4.719047821e-14 1
-2.96 2.24 -4 0 0 -1
-2.96 2.24 3.54 -1.20258723e-14 4.622771186e-14 1
-2.96 2.5 -4 0 0 -1
-2.96 2.5 3.54 -2.03001899e-14 6.09005697e-14 1
-2.96 2.76 -4 0 0 -1
-2.96 2.76 3.54 -3.131602824e-14 7.076208352e-14 1
-2.96 3.02 -4 0.03080395031 0.1910965038 -0.9810877855
-2.96 3.02 3.54 0.03080395031 0.1910965038 0.9810877855
-2.96 3.28 -4 -2.115295373e-14 0.4472135955 -0.894427191
-2.96 3.28 3.54 -4.230590746e-14 0.4472135955 0.894427191
-2.96 3.54 -4 0.01773512427 0.634156031 -0.7730016777
-2.96 3.54 -3.74 -2.820393831e-14 0.894427191 -0.4472135955
-2.96 3.54 -3.48 0.03080395031 0.9810877855 -0.1910965038
-2.96 3.54 -3.22 -3.261464333e-14 1 -3.987892697e-14
-2.96 3.54 -2.96 -3.001741316e-14 1 -2.159880499e-14
-2.96 3.54 -2.7 -2.462890687e-14 1 -4.204328546e-14
-2.96 3.54 -2.44 -3.65104886e-14 1 -5.277054267e-14
-2.96 3.54 -2.18 -2.094949745e-14 1 -4.545899143e-14
-2.96 3.54 -1.92 -2.936810561e-14 1 -3.877187005e-14
-2.96 3.54 -1.66 -2.397959932e-14 1 -2.660170718e-14
-2.96 3.54 -1.4 -3.412969427e-14 1 -3.848577669e-15
-2.96 3.54 -1.14 -2.257276631e-14 1 -6.855045744e-15
-2.96 3.54 -0.88 -1.007794967e-14 1 -5.291483323e-15
-2.96 3.54 -0.62 -2.3005638e-14 1 -3.439339772e-15
-2.96 3.54 -0.36 -3.445434804e-14 1 -3.872211468e-15
-2.96 3.54 -0.1 -2.28703656e-14 1 2.223442981e-16
-2.96 3.54 0.16 -3.074788414e-14 1 2.279106798e-15
-2.96 3.54 0.42 -2.268098423e-14 1 4.281449365e-15
-2.96 3.54 0.68 -2.289742008e-14 1 -8.657433928e-16
-2.96 3.54 0.94 -3.120781032e-14 1 9.885147619e-15
-2.96 3.54 1.2 -3.10995924e-14 1 -7.022970109e-15
-2.96 3.54 1.46 -3.001741316e-14 1 2.159880499e-14
-2.96 3.54 1.72 -2.419603517e-14 1 3.174889994e-14
-2.96 3.54 1.98 -2.462890687e-14 1 4.204328546e-14
-2.96 3.54 2.24 -1.20258723e-14 1 4.622771186e-14
-2.96 3.54 2.5 -2.03001899e-14 1 6.09005697e-14
-2.96 3.54 2.76 -3.131602824e-14 1 7.076208352e-14
-2.96 3.54 3.02 0.03080395031 0.9810877855 0.1910965038
-2.96 3.54 3.28 -3.525492289e-14 0.894427191 0.4472135955
-2.96 3.54 3.54 0.01773512427 0.634156031 0.7730016777
-2.7 -4 -4 0.007472111874 -0.7039377404 -0.7102223772
-2.7 -4 -3.74 -0.01420460716 -0.9113855996 -0.4113083003
-2.7 -4 -3.48 -0.02066686099 -0.9870087715 -0.1593316223
-2.7 -4 -3.22 0 -1 0
-2.7 -4 -2.96 0 -1 0
-2.7 -4 -2.7 0 -1 0
-2.7 -4 -2.44 0 -1 0
-2.7 -4 -2.18 0 -1 0
-2.7 -4 -1.92 0 -1 0
-2.7 -4 -1.66 0 -1 0
-2.7 -4 -1.4 0 -1 0
-2.7 -4 -1.14 0 -1 0
-2.7 -4 -0.88 0 -1 0
-2.7 -4 -0.62 0 -1 0
-2.7 -4 -0.36 0 -1 0
-2.7 -4 -0.1 0 -1 0
-2.7 -4 0.16 0 -1 0
-2.7 -4 0.42 0 -1 0
-2.7 -4 0.68 0 -1 0
-2.7 -4 0.94 0 -1 0
-2.7 -4 1.2 0 -1 0
-2.7 -4 1.46 0 -1 0
-2.7 -4 1.72 0 -1 0
-2.7 -4 1.98 0 -1 0
-2.7 -4 2.24 0 -1 0
-2.7 -4 2.5 0 -1 0
-2.7 -4 2.76 0 -1 0
-2.7 -4 3.02 -0.02066686099 -0.9870087715 0.1593316223
-2.7 -4 3.28 -0.01420460716 -0.9113855996 0.4113083003
-2.7 -4 3.54 0.007472111874 -0.7039377404 0.7102223772
-2.7 -3.74 -4 -0.01420460716 -0.4113083003 -0.9113855996
-2.7 -3.74 3.54 -0.01420460716 -0.4113083003 0.9113855996
-2.7 -3.48 -4 -0.02066686099 -0.1593316223 -0.9870087715
-2.7 -3.48 3.54 -0.03080395031 -0.1910965038 0.9810877855
-2.7 -3.22 -4 0 0 -1
-2.7 -3.22 3.54 -3.60776169e-14 -4.247615715e-14 1
-2.7 -2.96 -4 0 0 -1
-2.7 -2.96 3.54 -4.204328546e-14 -2.462890687e-14 1
-2.7 -2.7 -4 -0 -0 -1
-2.7 -2.7 3.54 -3.261464333e-14 -3.987892697e-14 1
-2.7 -2.44 -4 -0 -0 -1
-2.7 -2.44 3.54 -3.174889994e-14 -6.046769801e-14 1
-2.7 -2.18 -4 0 0 -1
-2.7 -2.18 3.54 -3.629405275e-14 -4.762334991e-14 1
-2.7 -1.92 -4 0 0 -1
-2.7 -1.92 3.54 -4.290902885e-14 -4.752632694e-14 1
-2.7 -1.66 -4 -0 -0 -1
-2.7 -1.66 3.54 -3.987892697e-14 -3.261464333e-14 1
-2.7 -1.4 -4 0 0 -1
-2.7 -1.4 3.54 -3.477900182e-14 -1.159300061e-14 1
-2.7 -1.14 -4 0 0 -1
-2.7 -1.14 3.54 -3.467078389e-14 -9.019404226e-15 1
-2.7 -0.88 -4 0 0 -1
-2.7 -0.88 3.54 -4.096110622e-14 -3.992868234e-15 1
-2.7 -0.62 -4 -0 -0 -1
-2.7 -0.62 3.54 -3.42379122e-14 -1.27498129e-15 1
-2.7 -0.36 -4 -0 -0 -1
-2.7 -0.36 3.54 -3.42379122e-14 -1.27498129e-15 1
-2.7 -0.1 -4 0 0 -1
-2.7 -0.1 3.54 -3.43731846e-14 -1.942014184e-15 1
-2.7 0.16 -4 0 0 -1
-2.7 0.16 3.54 -4.131281447e-14 5.309208673e-15 1
-2.7 0.42 -4 0 0 -1
-2.7 0.42 3.54 -4.139397791e-14 7.455841806e-15 1
-2.7 0.68 -4 -0 -0 -1
-2.7 0.68 3.54 -3.434613012e-14 1.298615089e-15 1
-2.7 0.94 -4 0 0 -1
-2.7 0.94 3.54 -4.106932414e-14 1.130690724e-15 1
-2.7 1.2 -4 -0 -0 -1
-2.7 1.2 3.54 -4.096110622e-14 -3.992868234e-15 1
-2.7 1.46 -4 -0 -0 -1
-2.7 1.46 3.54 -4.204328546e-14 2.462890687e-14 1
-2.7 1.72 -4 0 0 -1
-2.7 1.72 3.54 -3.326395088e-14 2.44373487e-14 1
-2.7 1.98 -4 0 0 -1
-2.7 1.98 3.54 -3.261464333e-14 3.987892697e-14 1
-2.7 2.24 -4 0 0 -1
-2.7 2.24 3.54 -3.987892697e-14 3.261464333e-14 1
-2.7 2.5 -4 -0 -0 -1
-2.7 2.5 3.54 -3.69433603e-14 6.306492818e-14 1
-2.7 2.76 -4 -0 -0 -1
-2.7 2.76 3.54 -3.737623199e-14 7.33593137e-14 1
-2.7 3.02 -4 -0.02066686099 0.1593316223 -0.9870087715
-2.7 3.02 3.54 -0.03080395031 0.1910965038 0.9810877855
-2.7 3.28 -4 -0.01420460716 0.4113083003 -0.9113855996
-2.7 3.28 3.54 -0.01420460716 0.4113083003 0.9113855996
-2.7 3.54 -4 0.007472111874 0.7102223772 -0.7039377404
-2.7 3.54 -3.74 -0.01420460716 0.9113855996 -0.4113083003
-2.7 3.54 -3.48 -0.03080395031 0.9810877855 -0.1910965038
-2.7 3.54 -3.22 -3.60776169e-14 1 -4.247615715e-14
-2.7 3.54 -2.96 -4.204328546e-14 1 -2.462890687e-14
-2.7 3.54 -2.7 -3.261464333e-14 1 -3.987892697e-14
-2.7 3.54 -2.44 -3.174889994e-14 1 -6.046769801e-14
-2.7 3.54 -2.18 -3.629405275e-14 1 -4.762334991e-14
-2.7 3.54 -1.92 -4.290902885e-14 1 -4.752632694e-14
-2.7 3.54 -1.66 -3.987892697e-14 1 -3.261464333e-14
-2.7 3.54 -1.4 -3.477900182e-14 1 -1.159300061e-14
-2.7 3.54 -1.14 -3.467078389e-14 1 -9.019404226e-15
-2.7 3.54 -0.88 -4.139397791e-14 1 -7.455841806e-15
-2.7 3.54 -0.62 -3.42379122e-14 1 -1.27498129e-15
-2.7 3.54 -0.36 -3.42379122e-14 1 -1.27498129e-15
-2.7 3.54 -0.1 -3.43731846e-14 1 -1.942014184e-15
-2.7 3.54 0.16 -4.131281447e-14 1 5.309208673e-15
-2.7 3.54 0.42 -4.139397791e-14 1 7.455841806e-15
-2.7 3.54 0.68 -3.434613012e-14 1 1.298615089e-15
-2.7 3.54 0.94 -4.106932414e-14 1 1.130690724e-15
-2.7 3.54 1.2 -4.096110622e-14 1 -3.992868234e-15
-2.7 3.54 1.46 -4.204328546e-14 1 2.462890687e-14
-2.7 3.54 1.72 -3.326395088e-14 1 2.44373487e-14
-2.7 3.54 1.98 -3.239820749e-14 1 4.502611973e-14
-2.7 3.54 2.24 -3.987892697e-14 1 3.261464333e-14
-2.7 3.54 2.5 -3.69433603e-14 1 6.306492818e-14
-2.7 3.54 2.76 -3.737623199e-14 1 7.33593137e-14
-2.7 3.54 3.02 -0.03080395031 0.9810877855 0.1910965038
-2.7 3.54 3.28 -0.01420460716 0.9113855996 0.4113083003
-2.7 3.54 3.54 0.007472111874 0.7039377404 0.7102223772
-2.44 -4 -4 0.007472111874 -0.7039377404 -0.7102223772
-2.44 -4 -3.74 -4.71474098e-15 -0.9294466674 -0.3689564912
-2.44 -4 -3.48 2.101080281e-14 -0.9913436094 -0.1312929859
-2.44 -4 -3.22 0 -1 0
-2.44 -4 -2.96 0 -1 0
-2.44 -4 -2.7 0 -1 0
-2.44 -4 -2.44 0 -1 0
-2.44 -4 -2.18 0 -1 0
-2.44 -4 -1.92 0 -1 0
-2.44 -4 -1.66 0 -1 0
-2.44 -4 -1.4 0 -1 0
-2.44 -4 -1.14 0 -1 0
-2.44 -4 -0.88 0 -1 0
-2.44 -4 -0.62 0 -1 0
-2.44 -4 -0.36 0 -1 0
-2.44 -4 -0.1 0 -1 0
-2.44 -4 0.16 0 -1 0
-2.44 -4 0.42 0 -1 0
-2.44 -4 0.68 0 -1 0
-2.44 -4 0.94 0 -1 0
-2.44 -4 1.2 0 -1 0
-2.44 -4 1.46 0 -1 0
-2.44 -4 1.72 0 -1 0
-2.44 -4 1.98 0 -1 0
-2.44 -4 2.24 0 -1 0
-2.44 -4 2.5 0 -1 0
-2.44 -4 2.76 0 -1 0
-2.44 -4 3.02 -0.02066686099 -0.9870087715 0.1593316223
-2.44 -4 3.28 -2.121633441e-14 -0.9294466674 0.3689564912
-2.44 -4 3.54 0.007472111874 -0.7102223772 0.7039377404
-2.44 -3.74 -4 -4.71474098e-15 -0.3689564912 -0.9294466674
-2.44 -3.74 3.54 -4.230590746e-14 -0.4472135955 0.894427191
-2.44 -3.48 -4 2.101080281e-14 -0.1312929859 -0.9913436094
-2.44 -3.48 3.54 0.03080395031 -0.1910965038 0.9810877855
-2.44 -3.22 -4 0 0 -1
-2.44 -3.22 3.54 -6.263205649e-14 -2.549465026e-14 1
-2.44 -2.96 -4 0 0 -1
-2.44 -2.96 3.54 -5.277054267e-14 -3.65104886e-14 1
-2.44 -2.7 -4 -0 -0 -1
-2.44 -2.7 3.54 -6.046769801e-14 -3.174889994e-14 1
-2.44 -2.44 -4 0 0 -1
-2.44 -2.44 3.54 -4.839207034e-14 -6.349779988e-14 1
-2.44 -2.18 -4 0 0 -1
-2.44 -2.18 3.54 -6.349779988e-14 -4.839207034e-14 1
-2.44 -1.92 -4 0 0 -1
-2.44 -1.92 3.54 -5.233767097e-14 -2.506177856e-14 1
-2.44 -1.66 -4 -0 -0 -1
-2.44 -1.66 3.54 -6.068413385e-14 -2.602454492e-14 1
-2.44 -1.4 -4 0 0 -1
-2.44 -1.4 3.54 -4.536196846e-14 -8.56289873e-15 1
-2.44 -1.14 -4 0 0 -1
-2.44 -1.14 3.54 -6.219918479e-14 -1.404594022e-14 1
-2.44 -0.88 -4 -0 -0 -1
-2.44 -0.88 3.54 -5.125549173e-14 -3.559996538e-15 1
-2.44 -0.62 -4 -0 -0 -1
-2.44 -0.62 3.54 -5.136370966e-14 -6.978190278e-16 1
-2.44 -0.36 -4 -0 -0 -1
-2.44 -0.36 3.54 -5.713533227e-14 -4.092378969e-16 1
-2.44 -0.1 -4 -0 -0 -1
-2.44 -0.1 3.54 -5.727060468e-14 -2.807757577e-15 1
-2.44 0.16 -4 -0 -0 -1
-2.44 0.16 3.54 -5.163425447e-14 6.457624747e-15 1
-2.44 0.42 -4 0 0 -1
-2.44 0.42 3.54 -6.154987725e-14 3.127124841e-15 1
-2.44 0.68 -4 0 0 -1
-2.44 0.68 3.54 -4.579484016e-14 -1.731486786e-15 1
-2.44 0.94 -4 0 0 -1
-2.44 0.94 3.54 -5.114727381e-14 6.422174048e-15 1
-2.44 1.2 -4 -0 -0 -1
-2.44 1.2 3.54 -5.168836343e-14 -7.888713502e-15 1
-2.44 1.46 -4 -0 -0 -1
-2.44 1.46 3.54 -5.233767097e-14 2.506177856e-14 1
-2.44 1.72 -4 -0 -0 -1
-2.44 1.72 3.54 -5.594493511e-14 2.871879807e-14 1
-2.44 1.98 -4 -0 -0 -1
-2.44 1.98 3.54 -4.752632694e-14 4.290902885e-14 1
-2.44 2.24 -4 0 0 -1
-2.44 2.24 3.54 -4.974044079e-14 4.363048168e-14 1
-2.44 2.5 -4 0 0 -1
-2.44 2.5 3.54 -5.984078038e-14 6.393067158e-14 1
-2.44 2.76 -4 0 0 -1
-2.44 2.76 3.54 -6.027365207e-14 7.422505709e-14 1
-2.44 3.02 -4 -0.02066686099 0.1593316223 -0.9870087715
-2.44 3.02 3.54 0.03080395031 0.1910965038 0.9810877855
-2.44 3.28 -4 -2.121633441e-14 0.3689564912 -0.9294466674
-2.44 3.28 3.54 -7.756083035e-14 0.4472135955 0.894427191
-2.44 3.54 -4 0.007472111874 0.7039377404 -0.7102223772
-2.44 3.54 -3.74 -4.230590746e-14 0.894427191 -0.4472135955
-2.44 3.54 -3.48 0.03080395031 0.9810877855 -0.1910965038
-2.44 3.54 -3.22 -6.263205649e-14 1 -2.549465026e-14
-2.44 3.54 -2.96 -5.277054267e-14 1 -3.65104886e-14
-2.44 3.54 -2.7 -6.046769801e-14 1 -3.174889994e-14
-2.44 3.54 -2.44 -4.795919864e-14 1 -5.320341437e-14
-2.44 3.54 -2.18 -6.349779988e-14 1 -4.839207034e-14
-2.44 3.54 -1.92 -5.233767097e-14 1 -2.506177856e-14
-2.44 3.54 -1.66 -6.068413385e-14 1 -2.602454492e-14
-2.44 3.54 -1.4 -4.557840431e-14 1 -3.415705972e-15
-2.44 3.54 -1.14 -6.219918479e-14 1 -1.404594022e-14
-2.44 3.54 -0.88 -5.168836343e-14 1 -7.888713502e-15
-2.44 3.54 -0.62 -5.136370966e-14 1 -6.978190278e-16
-2.44 3.54 -0.36 -5.713533227e-14 1 -4.092378969e-16
-2.44 3.54 -0.1 -6.866520576e-14 1 1.953831084e-15
-2.44 3.54 0.16 -6.160398621e-14 1 1.696036086e-15
-2.44 3.54 0.42 -5.125549173e-14 1 3.559996538e-15
-2.44 3.54 0.68 -5.72435502e-14 1 2.164358482e-15
-2.44 3.54 0.94 -6.144165932e-14 1 5.989302351e-15
-2.44 3.54 1.2 -5.125549173e-14 1 -3.559996538e-15
-2.44 3.54 1.46 -5.233767097e-14 1 2.506177856e-14
-2.44 3.54 1.72 -6.999087533e-14 1 3.348038673e-14
-2.44 3.54 1.98 -7.064018287e-14 1 4.8921965e-14
-2.44 3.54 2.24 -5.320341437e-14 1 4.795919864e-14
-2.44 3.54 2.5 -6.609503006e-14 1 5.916908292e-14
-2.44 3.54 2.76 -6.566215836e-14 1 6.946346843e-14
-2.44 3.54 3.02 0.03080395031 0.9810877855 0.1910965038
-2.44 3.54 3.28 -7.756083035e-14 0.894427191 0.4472135955
-2.44 3.54 3.54 0.007472111874 0.7102223772 0.7039377404
-2.18 -4 -4 -0.007472111874 -0.7102223772 -0.7039377404
-2.18 -4 -3.74 0.01420460716 -0.9113855996 -0.4113083003
-2.18 -4 -3.48 0.02066686099 -0.9870087715 -0.1593316223
-2.18 -4 -3.22 0 -1 0
-2.18 -4 -2.96 0 -1 0
-2.18 -4 -2.7 0 -1 0
-2.18 -4 -2.44 0 -1 0
-2.18 -4 -2.18 0 -1 0
-2.18 -4 -1.92 0 -1 0
-2.18 -4 -1.66 0 -1 0
-2.18 -4 -1.4 0 -1 0
-2.18 -4 -1.14 0 -1 0
-2.18 -4 -0.88 0 -1 0
-2.18 -4 -0.62 0 -1 0
-2.18 -4 -0.36 0 -1 0
-2.18 -4 -0.1 0 -1 0
-2.18 -4 0.16 0 -1 0
-2.18 -4 0.42 0 -1 0
-2.18 -4 0.68 0 -1 0
-2.18 -4 0.94 0 -1 0
-2.18 -4 1.2 0 -1 0
-2.18 -4 1.46 0 -1 0
-2.18 -4 1.72 0 -1 0
-2.18 -4 1.98 0 -1 0
-2.18 -4 2.24 0 -1 0
-2.18 -4 2.5 0 -1 0
-2.18 -4 2.76 0 -1 0
-2.18 -4 3.02 0.02066686099 -0.9870087715 0.1593316223
-2.18 -4 3.28 0.01420460716 -0.9113855996 0.4113083003
-2.18 -4 3.54 -0.007472111874 -0.7102223772 0.7039377404
-2.18 -3.74 -4 0.01420460716 -0.4113083003 -0.9113855996
-2.18 -3.74 3.54 0.01420460716 -0.4113083003 0.9113855996
-2.18 -3.48 -4 0.02066686099 -0.1593316223 -0.9870087715
-2.18 -3.48 3.54 0.02066686099 -0.1593316223 0.9870087715
-2.18 -3.22 -4 -0 -0 -1
-2.18 -3.22 3.54 -4.449622507e-14 -2.915166976e-14 1
-2.18 -2.96 -4 -0 -0 -1
-2.18 -2.96 3.54 -4.502611973e-14 -3.239820749e-14 1
-2.18 -2.7 -4 0 0 -1
-2.18 -2.7 3.54 -4.762334991e-14 -3.629405275e-14 1
-2.18 -2.44 -4 0 0 -1
-2.18 -2.44 3.54 -4.795919864e-14 -5.320341437e-14 1
-2.18 -2.18 -4 -0 -0 -1
-2.18 -2.18 3.54 -4.363048168e-14 -4.974044079e-14 1
-2.18 -1.92 -4 -0 -0 -1
-2.18 -1.92 3.54 -4.459324804e-14 -4.384691753e-14 1
-2.18 -1.66 -4 0 0 -1
-2.18 -1.66 3.54 -4.740691406e-14 -3.056969773e-14 1
-2.18 -1.4 -4 -0 -0 -1
-2.18 -1.4 3.54 -4.536196846e-14 -8.56289873e-15 1
-2.18 -1.14 -4 -0 -0 -1
-2.18 -1.14 3.54 -4.547018639e-14 -5.989302351e-15 1
-2.18 -0.88 -4 0 0 -1
-2.18 -0.88 3.54 -4.610829897e-14 -3.776432386e-15 1
-2.18 -0.62 -4 0 0 -1
-2.18 -0.62 3.54 -4.590305808e-14 -4.305083165e-15 1
-2.18 -0.36 -4 0 0 -1
-2.18 -0.36 3.54 -4.590305808e-14 -4.305083165e-15 1
-2.18 -0.1 -4 -0 -0 -1
-2.18 -0.1 3.54 -4.576778568e-14 1.088087691e-15 1
-2.18 0.16 -4 -0 -0 -1
-2.18 0.16 3.54 -5.130960069e-14 2.128907783e-15 1
-2.18 0.42 -4 -0 -0 -1
-2.18 0.42 3.54 -5.168836343e-14 7.888713502e-15 1
-2.18 0.68 -4 0 0 -1
-2.18 0.68 3.54 -4.579484016e-14 -1.731486786e-15 1
-2.18 0.94 -4 -0 -0 -1
-2.18 0.94 3.54 -4.664938859e-14 1.053445516e-14 1
-2.18 1.2 -4 0 0 -1
-2.18 1.2 3.54 -5.125549173e-14 -3.559996538e-15 1
-2.18 1.46 -4 0 0 -1
-2.18 1.46 3.54 -4.545899143e-14 2.094949745e-14 1
-2.18 1.72 -4 -0 -0 -1
-2.18 1.72 3.54 -4.68770194e-14 2.746745058e-14 1
-2.18 1.98 -4 -0 -0 -1
-2.18 1.98 3.54 -5.346711781e-14 4.827265746e-14 1
-2.18 2.24 -4 0 0 -1
-2.18 2.24 3.54 -4.805622161e-14 4.774276279e-14 1
-2.18 2.5 -4 0 0 -1
-2.18 2.5 3.54 -4.93548367e-14 4.952400495e-14 1
-2.18 2.76 -4 0 0 -1
-2.18 2.76 3.54 -4.276473828e-14 7.032921183e-14 1
-2.18 3.02 -4 0.02066686099 0.1593316223 -0.9870087715
-2.18 3.02 3.54 0.03080395031 0.1910965038 0.9810877855
-2.18 3.28 -4 0.01420460716 0.4113083003 -0.9113855996
-2.18 3.28 3.54 0.01420460716 0.4113083003 0.9113855996
-2.18 3.54 -4 -0.007472111874 0.7039377404 -0.7102223772
-2.18 3.54 -3.74 0.01420460716 0.9113855996 -0.4113083003
-2.18 3.54 -3.48 0.02066686099 0.9870087715 -0.1593316223
-2.18 3.54 -3.22 -4.449622507e-14 1 -2.915166976e-14
-2.18 3.54 -2.96 -4.545899143e-14 1 -2.094949745e-14
-2.18 3.54 -2.7 -4.762334991e-14 1 -3.629405275e-14
-2.18 3.54 -2.44 -4.795919864e-14 1 -5.320341437e-14
-2.18 3.54 -2.18 -4.437681219e-14 1 -4.957127254e-14
-2.18 3.54 -1.92 -4.459324804e-14 1 -4.384691753e-14
-2.18 3.54 -1.66 -4.740691406e-14 1 -3.056969773e-14
-2.18 3.54 -1.4 -4.557840431e-14 1 -3.415705972e-15
-2.18 3.54 -1.14 -4.589186313e-14 1 -9.500787406e-15
-2.18 3.54 -0.88 -4.654117067e-14 1 -7.672277654e-15
-2.18 3.54 -0.62 -4.643295275e-14 1 -4.810100144e-15
-2.18 3.54 -0.36 -4.590305808e-14 1 -4.305083165e-15
-2.18 3.54 -0.1 -4.576778568e-14 1 1.088087691e-15
-2.18 3.54 0.16 -5.160719998e-14 1 5.74208037e-15
-2.18 3.54 0.42 -5.168836343e-14 1 7.888713502e-15
-2.18 3.54 0.68 -4.579484016e-14 1 -1.731486786e-15
-2.18 3.54 0.94 -4.697404237e-14 1 1.912098769e-14
-2.18 3.54 1.2 -5.125549173e-14 1 -3.559996538e-15
-2.18 3.54 1.46 -4.545899143e-14 1 2.094949745e-14
-2.18 3.54 1.72 -4.709345525e-14 1 3.261464333e-14
-2.18 3.54 1.98 -5.346711781e-14 1 4.827265746e-14
-2.18 3.54 2.24 -4.459324804e-14 1 4.384691753e-14
-2.18 3.54 2.5 -4.93548367e-14 1 4.952400495e-14
-2.18 3.54 2.76 -4.276473828e-14 1 7.032921183e-14
-2.18 3.54 3.02 0.02066686099 0.9870087715 0.1593316223
-2.18 3.54 3.28 0.01420460716 0.9113855996 0.4113083003
-2.18 3.54 3.54 -0.007472111874 0.7039377404 0.7102223772
-1.92 -4 -4 0.01773512427 -0.7730016777 -0.634156031
-1.92 -4 -3.74 1.762746144e-14 -0.894427191 -0.4472135955
-1.92 -4 -3.48 -8.305460454e-15 -0.9913436094 -0.1312929859
-1.92 -4 -3.22 0 -1 0
-1.92 -4 -2.96 0 -1 0
-1.92 -4 -2.7 0 -1 0
-1.92 -4 -2.44 0 -1 0
-1.92 -4 -2.18 0 -1 0
-1.92 -4 -1.92 0 -1 0
-1.92 -4 -1.66 0 -1 0
-1.92 -4 -1.4 0 -1 0
-1.92 -4 -1.14 0 -1 0
-1.92 -4 -0.88 0 -1 0
-1.92 -4 -0.62 0 -1 0
-1.92 -4 -0.36 0 -1 0
-1.92 -4 -0.1 0 -1 0
-1.92 -4 0.16 0 -1 0
-1.92 -4 0.42 0 -1 0
-1.92 -4 0.68 0 -1 0
-1.92 -4 0.94 0 -1 0
-1.92 -4 1.2 0 -1 0
-1.92 -4 1.46 0 -1 0
-1.92 -4 1.72 0 -1 0
-1.92 -4 1.98 0 -1 0
-1.92 -4 2.24 0 -1 0
-1.92 -4 2.5 0 -1 0
-1.92 -4 2.76 0 -1 0
-1.92 -4 3.02 0.02066686099 -0.9870087715 0.1593316223
-1.92 -4 3.28 -3.525492289e-15 -0.894427191 0.4472135955
-1.92 -4 3.54 0.01773512427 -0.7730016777 0.634156031
-1.92 -3.74 -4 3.525492289e-15 -0.4472135955 -0.894427191
-1.92 -3.74 3.54 1.057647687e-14 -0.4472135955 0.894427191
-1.92 -3.48 -4 1.771089138e-14 -0.1312929859 -0.9913436094
-1.92 -3.48 3.54 0.03080395031 -0.1910965038 0.9810877855
-1.92 -3.22 -4 -0 -0 -1
-1.92 -3.22 3.54 -4.406335337e-14 -3.944605528e-14 1
-1.92 -2.96 -4 -0 -0 -1
-1.92 -2.96 3.54 -3.877187005e-14 -2.936810561e-14 1
-1.92 -2.7 -4 0 0 -1
-1.92 -2.7 3.54 -4.752632694e-14 -4.290902885e-14 1
-1.92 -2.44 -4 0 0 -1
-1.92 -2.44 3.54 -2.506177856e-14 -5.233767097e-14 1
-1.92 -2.18 -4 -0 -0 -1
-1.92 -2.18 3.54 -4.384691753e-14 -4.459324804e-14 1
-1.92 -1.92 -4 -0 -0 -1
-1.92 -1.92 3.54 -2.936810561e-14 -3.877187005e-14 1
-1.92 -1.66 -4 0 0 -1
-1.92 -1.66 3.54 -4.68770194e-14 -2.746745058e-14 1
-1.92 -1.4 -4 -0 -0 -1
-1.92 -1.4 3.54 -2.268098423e-14 -4.281449365e-15 1
-1.92 -1.14 -4 -0 -0 -1
-1.92 -1.14 3.54 -4.547018639e-14 -5.989302351e-15 1
-1.92 -0.88 -4 -0 -0 -1
-1.92 -0.88 3.54 -3.996226721e-14 1.058545442e-15 1
-1.92 -0.62 -4 0 0 -1
-1.92 -0.62 3.54 -4.590305808e-14 -4.305083165e-15 1
-1.92 -0.36 -4 0 0 -1
-1.92 -0.36 3.54 -2.872999302e-14 -3.65577562e-15 1
-1.92 -0.1 -4 -0 -0 -1
-1.92 -0.1 3.54 -4.576778568e-14 1.088087691e-15 1
-1.92 0.16 -4 -0 -0 -1
-1.92 0.16 3.54 -3.616562171e-14 5.092772825e-15 1
-1.92 0.42 -4 0 0 -1
-1.92 0.42 3.54 -4.557840431e-14 3.415705972e-15 1
-1.92 0.68 -4 0 0 -1
-1.92 0.68 3.54 -2.86217751e-14 -1.082179241e-15 1
-1.92 0.94 -4 0 0 -1
-1.92 0.94 3.54 -3.099137447e-14 4.160792599e-15 1
-1.92 1.2 -4 0 0 -1
-1.92 1.2 3.54 -3.10995924e-14 -7.022970109e-15 1
-1.92 1.46 -4 0 0 -1
-1.92 1.46 3.54 -3.001741316e-14 2.159880499e-14 1
-1.92 1.72 -4 -0 -0 -1
-1.92 1.72 3.54 -2.992039019e-14 3.196533579e-14 1
-1.92 1.98 -4 -0 -0 -1
-1.92 1.98 3.54 -4.752632694e-14 4.290902885e-14 1
-1.92 2.24 -4 -0 -0 -1
-1.92 2.24 3.54 -2.4004477e-14 4.471266092e-14 1
-1.92 2.5 -4 0 0 -1
-1.92 2.5 3.54 -4.319760998e-14 6.003482631e-14 1
-1.92 2.76 -4 0 0 -1
-1.92 2.76 3.54 -2.559167322e-14 7.097851937e-14 1
-1.92 3.02 -4 0.02066686099 0.1593316223 -0.9870087715
-1.92 3.02 3.54 0.03080395031 0.1910965038 0.9810877855
-1.92 3.28 -4 -3.525492289e-15 0.4472135955 -0.894427191
-1.92 3.28 3.54 -1.762746144e-14 0.4472135955 0.894427191
-1.92 3.54 -4 0.01773512427 0.7730016777 -0.634156031
-1.92 3.54 -3.74 1.057647687e-14 0.894427191 -0.4472135955
-1.92 3.54 -3.48 0.03080395031 0.9810877855 -0.1910965038
-1.92 3.54 -3.22 -4.406335337e-14 1 -3.944605528e-14
-1.92 3.54 -2.96 -3.877187005e-14 1 -2.936810561e-14
-1.92 3.54 -2.7 -4.752632694e-14 1 -4.290902885e-14
-1.92 3.54 -2.44 -2.506177856e-14 1 -5.233767097e-14
-1.92 3.54 -2.18 -4.384691753e-14 1 -4.459324804e-14
-1.92 3.54 -1.92 -2.980097731e-14 1 -2.732316001e-14
-1.92 3.54 -1.66 -4.68770194e-14 1 -2.746745058e-14
-1.92 3.54 -1.4 -2.268098423e-14 1 -4.281449365e-15
-1.92 3.54 -1.14 -4.547018639e-14 1 -5.989302351e-15
-1.92 3.54 -0.88 -3.603034931e-14 1 1.515050937e-15
-1.92 3.54 -0.62 -4.590305808e-14 1 -4.305083165e-15
-1.92 3.54 -0.36 -2.872999302e-14 1 -3.65577562e-15
-1.92 3.54 -0.1 -4.576778568e-14 1 1.088087691e-15
-1.92 3.54 0.16 -4.590305808e-14 1 4.305083165e-15
-1.92 3.54 0.42 -4.563251327e-14 1 2.128907783e-15
-1.92 3.54 0.68 -2.872999302e-14 1 -3.65577562e-15
-1.92 3.54 0.94 -2.840533925e-14 1 4.065013517e-15
-1.92 3.54 1.2 -2.840533925e-14 1 4.065013517e-15
-1.92 3.54 1.46 -2.797246755e-14 1 1.435939903e-14
-1.92 3.54 1.72 -2.992039019e-14 1 3.196533579e-14
-1.92 3.54 1.98 -4.774276279e-14 1 4.805622161e-14
-1.92 3.54 2.24 -2.746745058e-14 1 4.68770194e-14
-1.92 3.54 2.5 -4.319760998e-14 1 6.003482631e-14
-1.92 3.54 2.76 -2.559167322e-14 1 7.097851937e-14
-1.92 3.54 3.02 0.03080395031 0.9810877855 0.1910965038
-1.92 3.54 3.28 -1.410196915e-14 0.894427191 0.4472135955
-1.92 3.54 3.54 0.01773512427 0.7730016777 0.634156031
-1.66 -4 -4 0.007472111874 -0.7039377404 -0.7102223772
-1.66 -4 -3.74 -0.01420460716 -0.9113855996 -0.4113083003
-1.66 -4 -3.48 -0.02066686099 -0.9870087715 -0.1593316223
-1.66 -4 -3.22 0 -1 0
-1.66 -4 -2.96 0 -1 0
-1.66 -4 -2.7 0 -1 0
-1.66 -4 -2.44 0 -1 0
-1.66 -4 -2.18 0 -1 0
-1.66 -4 -1.92 0 -1 0
-1.66 -4 -1.66 0 -1 0
-1.66 -4 -1.4 0 -1 0
-1.66 -4 -1.14 0 -1 0
-1.66 -4 -0.88 0 -1 0
-1.66 -4 -0.62 0 -1 0
-1.66 -4 -0.36 0 -1 0
-1.66 -4 -0.1 0 -1 0
-1.66 -4 0.16 0 -1 0
-1.66 -4 0.42 0 -1 0
-1.66 -4 0.68 0 -1 0
-1.66 -4 0.94 0 -1 0
-1.66 -4 1.2 0 -1 0
-1.66 -4 1.46 0 -1 0
-1.66 -4 1.72 0 -1 0
-1.66 -4 1.98 0 -1 0
-1.66 -4 2.24 0 -1 0
-1.66 -4 2.5 0 -1 0
-1.66 -4 2.76 0 -1 0
-1.66 -4 3.02 -0.02066686099 -0.9870087715 0.1593316223
-1.66 -4 3.28 -0.01420460716 -0.9113855996 0.4113083003
-1.66 -4 3.54 0.007472111874 -0.7039377404 0.7102223772
-1.66 -3.74 -4 -0.01420460716 -0.4113083003 -0.9113855996
-1.66 -3.74 3.54 -0.01420460716 -0.4113083003 0.9113855996
-1.66 -3.48 -4 -0.02066686099 -0.1593316223 -0.9870087715
-1.66 -3.48 3.54 -0.03080395031 -0.1910965038 0.9810877855
-1.66 -3.22 -4 0 0 -1
-1.66 -3.22 3.54 -2.462890687e-14 -4.204328546e-14 1
-1.66 -2.96 -4 0 0 -1
-1.66 -2.96 3.54 -2.660170718e-14 -2.397959932e-14 1
-1.66 -2.7 -4 -0 -0 -1
-1.66 -2.7 3.54 -2.689028831e-14 -4.009536282e-14 1
-1.66 -2.44 -4 -0 -0 -1
-1.66 -2.44 3.54 -2.645741662e-14 -5.038974834e-14 1
-1.66 -2.18 -4 0 0 -1
-1.66 -2.18 3.54 -2.506177856e-14 -5.233767097e-14 1
-1.66 -1.92 -4 0 0 -1
-1.66 -1.92 3.54 -2.746745058e-14 -4.68770194e-14 1
-1.66 -1.66 -4 -0 -0 -1
-1.66 -1.66 3.54 -2.181524084e-14 -2.48702204e-14 1
-1.66 -1.4 -4 0 0 -1
-1.66 -1.4 3.54 -2.90546468e-14 -1.137656476e-14 1
-1.66 -1.14 -4 0 0 -1
-1.66 -1.14 3.54 -2.322207385e-14 -8.58653253e-15 1
-1.66 -0.88 -4 0 0 -1
-1.66 -0.88 3.54 -2.551952794e-14 -4.642175779e-15 1
-1.66 -0.62 -4 -0 -0 -1
-1.66 -0.62 3.54 -2.851355718e-14 -1.491417138e-15 1
-1.66 -0.36 -4 -0 -0 -1
-1.66 -0.36 3.54 -2.851355718e-14 -1.491417138e-15 1
-1.66 -0.1 -4 0 0 -1
-1.66 -0.1 3.54 -3.43731846e-14 -1.942014184e-15 1
-1.66 0.16 -4 -0 -0 -1
-1.66 0.16 3.54 -2.042644415e-14 3.427522872e-15 1
-1.66 0.42 -4 -0 -0 -1
-1.66 0.42 3.54 -2.037233518e-14 4.858611627e-15 1
-1.66 0.68 -4 -0 -0 -1
-1.66 0.68 3.54 -3.434613012e-14 1.298615089e-15 1
-1.66 0.94 -4 0 0 -1
-1.66 0.94 3.54 -2.541131002e-14 7.504353289e-15 1
-1.66 1.2 -4 0 0 -1
-1.66 1.2 3.54 -2.551952794e-14 -4.642175779e-15 1
-1.66 1.46 -4 -0 -0 -1
-1.66 1.46 3.54 -2.660170718e-14 2.397959932e-14 1
-1.66 1.72 -4 0 0 -1
-1.66 1.72 3.54 -3.326395088e-14 2.44373487e-14 1
-1.66 1.98 -4 0 0 -1
-1.66 1.98 3.54 -2.667385247e-14 4.524255558e-14 1
-1.66 2.24 -4 0 0 -1
-1.66 2.24 3.54 -1.929015594e-14 3.348038673e-14 1
-1.66 2.5 -4 -0 -0 -1
-1.66 2.5 3.54 -3.121900528e-14 6.284849234e-14 1
-1.66 2.76 -4 -0 -0 -1
-1.66 2.76 3.54 -3.165187697e-14 7.314287785e-14 1
-1.66 3.02 -4 -0.02066686099 0.1593316223 -0.9870087715
-1.66 3.02 3.54 -0.03080395031 0.1910965038 0.9810877855
-1.66 3.28 -4 -0.01420460716 0.4113083003 -0.9113855996
-1.66 3.28 3.54 -0.01420460716 0.4113083003 0.9113855996
-1.66 3.54 -4 0.007472111874 0.7039377404 -0.7102223772
-1.66 3.54 -3.74 -0.01420460716 0.9113855996 -0.4113083003
-1.66 3.54 -3.48 -0.03080395031 0.9810877855 -0.1910965038
-1.66 3.54 -3.22 -2.462890687e-14 1 -4.204328546e-14
-1.66 3.54 -2.96 -2.660170718e-14 1 -2.397959932e-14
-1.66 3.54 -2.7 -2.689028831e-14 1 -4.009536282e-14
-1.66 3.54 -2.44 -2.602454492e-14 1 -6.068413385e-14
-1.66 3.54 -2.18 -2.506177856e-14 1 -5.233767097e-14
-1.66 3.54 -1.92 -2.746745058e-14 1 -4.68770194e-14
-1.66 3.54 -1.66 -3.348038673e-14 1 -1.929015594e-14
-1.66 3.54 -1.4 -2.90546468e-14 1 -1.137656476e-14
-1.66 3.54 -1.14 -3.467078389e-14 1 -9.019404226e-15
-1.66 3.54 -0.88 -2.551952794e-14 1 -4.642175779e-15
-1.66 3.54 -0.62 -3.42379122e-14 1 -1.27498129e-15
-1.66 3.54 -0.36 -2.851355718e-14 1 -1.491417138e-15
-1.66 3.54 -0.1 -3.43731846e-14 1 -1.942014184e-15
-1.66 3.54 0.16 -2.072404344e-14 1 4.44346528e-15
-1.66 3.54 0.42 -1.565801412e-14 1 6.373662564e-15
-1.66 3.54 0.68 -2.86217751e-14 1 1.082179241e-15
-1.66 3.54 0.94 -2.541131002e-14 1 7.504353289e-15
-1.66 3.54 1.2 -2.551952794e-14 1 -4.642175779e-15
-1.66 3.54 1.46 -2.660170718e-14 1 2.397959932e-14
-1.66 3.54 1.72 -3.326395088e-14 1 2.44373487e-14
-1.66 3.54 1.98 -2.689028831e-14 1 4.009536282e-14
-1.66 3.54 2.24 -1.929015594e-14 1 3.348038673e-14
-1.66 3.54 2.5 -3.121900528e-14 1 6.284849234e-14
-1.66 3.54 2.76 -3.165187697e-14 1 7.314287785e-14
-1.66 3.54 3.02 -0.03080395031 0.9810877855 0.1910965038
-1.66 3.54 3.28 -0.01420460716 0.9113855996 0.4113083003
-1.66 3.54 3.54 0.007472111874 0.7039377404 0.7102223772
-1.4 -4 -4 -0.007472111874 -0.7102223772 -0.7039377404
-1.4 -4 -3.74 8.295875973e-15 -0.9294466674 -0.3689564912
-1.4 -4 -3.48 -0.006781004935 -0.9893648346 -0.1452970821
-1.4 -4 -3.22 0 -1 0
-1.4 -4 -2.96 0 -1 0
-1.4 -4 -2.7 0 -1 0
-1.4 -4 -2.44 0 -1 0
-1.4 -4 -2.18 0 -1 0
-1.4 -4 -1.92 0 -1 0
-1.4 -4 -1.66 0 -1 0
-1.4 -4 -1.4 0 -1 0
-1.4 -4 -1.14 0 -1 0
-1.4 -4 -0.88 0 -1 0
-1.4 -4 -0.62 0 -1 0
-1.4 -4 -0.36 0 -1 0
-1.4 -4 -0.1 0 -1 0
-1.4 -4 0.16 0 -1 0
-1.4 -4 0.42 0 -1 0
-1.4 -4 0.68 0 -1 0
-1.4 -4 0.94 0 -1 0
-1.4 -4 1.2 0 -1 0
-1.4 -4 1.46 0 -1 0
-1.4 -4 1.72 0 -1 0
-1.4 -4 1.98 0 -1 0
-1.4 -4 2.24 0 -1 0
-1.4 -4 2.5 0 -1 0
-1.4 -4 2.76 0 -1 0
-1.4 -4 3.02 -0.02066686099 -0.9870087715 0.1593316223
-1.4 -4 3.28 3.581134993e-15 -0.9294466674 0.3689564912
-1.4 -4 3.54 -0.007472111874 -0.7039377404 0.7102223772
-1.4 -3.74 -4 8.295875973e-15 -0.3689564912 -0.9294466674
-1.4 -3.74 3.54 -7.050984577e-15 -0.4472135955 0.894427191
-1.4 -3.48 -4 -0.006781004935 -0.1452970821 -0.9893648346
-1.4 -3.48 3.54 -0.03080395031 -0.1910965038 0.9810877855
-1.4 -3.22 -4 -0 -0 -1
-1.4 -3.22 3.54 -9.428642123e-15 -2.246454838e-14 1
-1.4 -2.96 -4 -0 -0 -1
-1.4 -2.96 3.54 -3.848577669e-15 -3.412969427e-14 1
-1.4 -2.7 -4 0 0 -1
-1.4 -2.7 3.54 -1.159300061e-14 -3.477900182e-14 1
-1.4 -2.44 -4 0 0 -1
-1.4 -2.44 3.54 -8.56289873e-15 -4.536196846e-14 1
-1.4 -2.18 -4 -0 -0 -1
-1.4 -2.18 3.54 -3.415705972e-15 -4.557840431e-14 1
-1.4 -1.92 -4 -0 -0 -1
-1.4 -1.92 3.54 -4.281449365e-15 -2.268098423e-14 1
-1.4 -1.66 -4 0 0 -1
-1.4 -1.66 3.54 -1.137656476e-14 -2.90546468e-14 1
-1.4 -1.4 -4 -0 -0 -1
-1.4 -1.4 3.54 -1.674019336e-14 -9.645077971e-15 1
-1.4 -1.14 -4 -0 -0 -1
-1.4 -1.14 3.54 -9.86151382e-15 -1.101583834e-14 1
-1.4 -0.88 -4 -0 -0 -1
-1.4 -0.88 3.54 -1.029438552e-14 4.328716964e-16 1
-1.4 -0.62 -4 0 0 -1
-1.4 -0.62 3.54 -1.040260344e-14 -3.295049206e-15 1
-1.4 -0.36 -4 0 0 -1
-1.4 -0.36 3.54 -5.309519644e-15 -4.509702113e-15 1
-1.4 -0.1 -4 0 0 -1
-1.4 -0.1 3.54 -2.28703656e-14 2.223442981e-16 1
-1.4 0.16 -4 0 0 -1
-1.4 0.16 3.54 -4.984865872e-15 4.076830417e-15 1
-1.4 0.42 -4 0 0 -1
-1.4 0.42 3.54 -4.984865872e-15 4.076830417e-15 1
-1.4 0.68 -4 -0 -0 -1
-1.4 0.68 3.54 -2.289742008e-14 -8.657433928e-16 1
-1.4 0.94 -4 -0 -0 -1
-1.4 0.94 3.54 -1.061903929e-14 9.019404226e-15 1
-1.4 1.2 -4 -0 -0 -1
-1.4 1.2 3.54 -5.363628606e-15 -5.940790868e-15 1
-1.4 1.46 -4 0 0 -1
-1.4 1.46 3.54 -4.281449365e-15 2.268098423e-14 1
-1.4 1.72 -4 0 0 -1
-1.4 1.72 3.54 -2.159880499e-14 3.001741316e-14 1
-1.4 1.98 -4 0 0 -1
-1.4 1.98 3.54 -2.116593329e-14 4.031179867e-14 1
-1.4 2.24 -4 -0 -0 -1
-1.4 2.24 3.54 -1.20258723e-14 4.622771186e-14 1
-1.4 2.5 -4 -0 -0 -1
-1.4 2.5 3.54 -2.549465026e-14 6.263205649e-14 1
-1.4 2.76 -4 -0 -0 -1
-1.4 2.76 3.54 -2.592752195e-14 7.2926442e-14 1
-1.4 3.02 -4 -0.02066686099 0.1593316223 -0.9870087715
-1.4 3.02 3.54 -0.03080395031 0.1910965038 0.9810877855
-1.4 3.28 -4 3.581134993e-15 0.3689564912 -0.9294466674
-1.4 3.28 3.54 -2.115295373e-14 0.4472135955 0.894427191
-1.4 3.54 -4 -0.007472111874 0.7039377404 -0.7102223772
-1.4 3.54 -3.74 -7.050984577e-15 0.894427191 -0.4472135955
-1.4 3.54 -3.48 -0.03080395031 0.9810877855 -0.1910965038
-1.4 3.54 -3.22 -9.428642123e-15 1 -2.246454838e-14
-1.4 3.54 -2.96 -3.848577669e-15 1 -3.412969427e-14
-1.4 3.54 -2.7 -1.159300061e-14 1 -3.477900182e-14
-1.4 3.54 -2.44 -8.56289873e-15 1 -4.536196846e-14
-1.4 3.54 -2.18 -3.415705972e-15 1 -4.557840431e-14
-1.4 3.54 -1.92 -4.281449365e-15 1 -2.268098423e-14
-1.4 3.54 -1.66 -1.137656476e-14 1 -2.90546468e-14
-1.4 3.54 -1.4 -1.674019336e-14 1 -9.645077971e-15
-1.4 3.54 -1.14 -1.500870658e-14 1 -1.07994025e-14
-1.4 3.54 -0.88 -1.029438552e-14 1 4.328716964e-16
-1.4 3.54 -0.62 -5.255410682e-15 1 -3.078613358e-15
-1.4 3.54 -0.36 -1.728128298e-14 1 -3.222903924e-15
-1.4 3.54 -0.1 -2.292447456e-14 1 -1.509142488e-15
-1.4 3.54 0.16 -1.013205863e-14 1 3.860394568e-15
-1.4 3.54 0.42 -1.013205863e-14 1 3.860394568e-15
-1.4 3.54 0.68 -2.289742008e-14 1 8.657433928e-16
-1.4 3.54 0.94 -1.061903929e-14 1 9.019404226e-15
-1.4 3.54 1.2 -1.007794967e-14 1 -5.291483323e-15
-1.4 3.54 1.46 -9.428642123e-15 1 2.246454838e-14
-1.4 3.54 1.72 -2.159880499e-14 1 3.001741316e-14
-1.4 3.54 1.98 -2.094949745e-14 1 4.545899143e-14
-1.4 3.54 2.24 -1.20258723e-14 1 4.622771186e-14
-1.4 3.54 2.5 -2.549465026e-14 1 6.263205649e-14
-1.4 3.54 2.76 -2.592752195e-14 1 7.2926442e-14
-1.4 3.54 3.02 -0.03080395031 0.9810877855 0.1910965038
-1.4 3.54 3.28 -2.115295373e-14 0.894427191 0.4472135955
-1.4 3.54 3.54 -0.007472111874 0.7102223772 0.7039377404
-1.14 -4 -4 -0.007472111874 -0.7039377404 -0.7102223772
-1.14 -4 -3.74 0.01420460716 -0.9113855996 -0.4113083003
-1.14 -4 -3.48 0.02066686099 -0.9870087715 -0.1593316223
-1.14 -4 -3.22 0 -1 0
-1.14 -4 -2.96 0 -1 0
-1.14 -4 -2.7 0 -1 0
-1.14 -4 -2.44 0 -1 0
-1.14 -4 -2.18 0 -1 0
-1.14 -4 -1.92 0 -1 0
-1.14 -4 -1.66 0 -1 0
-1.14 -4 -1.4 0 -1 0
-1.14 -4 -1.14 0 -1 0
-1.14 -4 -0.88 0 -1 0
-1.14 -4 -0.62 0 -1 0
-1.14 -4 -0.36 0 -1 0
-1.14 -4 -0.1 0 -1 0
-1.14 -4 0.16 0 -1 0
-1.14 -4 0.42 0 -1 0
-1.14 -4 0.68 0 -1 0
-1.14 -4 0.94 0 -1 0
-1.14 -4 1.2 0 -1 0
-1.14 -4 1.46 0 -1 0
-1.14 -4 1.72 0 -1 0
-1.14 -4 1.98 0 -1 0
-1.14 -4 2.24 0 -1 0
-1.14 -4 2.5 0 -1 0
-1.14 -4 2.76 0 -1 0
-1.14 -4 3.02 0.02066686099 -0.9870087715 0.1593316223
-1.14 -4 3.28 0.01420460716 -0.9113855996 0.4113083003
-1.14 -4 3.54 -0.007472111874 -0.7102223772 0.7039377404
-1.14 -3.74 -4 0.01420460716 -0.4113083003 -0.9113855996
-1.14 -3.74 3.54 0.01420460716 -0.4113083003 0.9113855996
-1.14 -3.48 -4 0.02066686099 -0.1593316223 -0.9870087715
-1.14 -3.48 3.54 0.02066686099 -0.1593316223 0.9870087715
-1.14 -3.22 -4 -0 -0 -1
-1.14 -3.22 3.54 -6.422174048e-15 -3.402147635e-14 1
-1.14 -2.96 -4 -0 -0 -1
-1.14 -2.96 3.54 -6.855045744e-15 -2.257276631e-14 1
-1.14 -2.7 -4 0 0 -1
-1.14 -2.7 3.54 -9.019404226e-15 -3.467078389e-14 1
-1.14 -2.44 -4 0 0 -1
-1.14 -2.44 3.54 -1.404594022e-14 -6.219918479e-14 1
-1.14 -2.18 -4 -0 -0 -1
-1.14 -2.18 3.54 -5.989302351e-15 -4.547018639e-14 1
-1.14 -1.92 -4 -0 -0 -1
-1.14 -1.92 3.54 -5.989302351e-15 -4.547018639e-14 1
-1.14 -1.66 -4 0 0 -1
-1.14 -1.66 3.54 -8.802968378e-15 -2.894642887e-14 1
-1.14 -1.4 -4 -0 -0 -1
-1.14 -1.4 3.54 -1.07994025e-14 -1.500870658e-14 1
-1.14 -1.14 -4 -0 -0 -1
-1.14 -1.14 3.54 -7.287917441e-15 -1.112405627e-14 1
-1.14 -0.88 -4 -0 -0 -1
-1.14 -0.88 3.54 -7.504353289e-15 -5.399701248e-15 1
-1.14 -0.62 -4 0 0 -1
-1.14 -0.62 3.54 -7.829007061e-15 -3.186831282e-15 1
-1.14 -0.36 -4 0 0 -1
-1.14 -0.36 3.54 -1.155692796e-14 -3.006468075e-15 1
-1.14 -0.1 -4 -0 -0 -1
-1.14 -0.1 3.54 -1.142165556e-14 -2.105273983e-16 1
-1.14 0.16 -4 -0 -0 -1
-1.14 0.16 3.54 -7.558462251e-15 3.968612493e-15 1
-1.14 0.42 -4 -0 -0 -1
-1.14 0.42 3.54 -7.612571213e-15 2.537523738e-15 1
-1.14 0.68 -4 0 0 -1
-1.14 0.68 3.54 -1.144871004e-14 -4.328716964e-16 1
-1.14 0.94 -4 -0 -0 -1
-1.14 0.94 3.54 -8.153660833e-15 1.177336381e-14 1
-1.14 1.2 -4 0 0 -1
