# .PCD v0.7 - Point Cloud Data file format
VERSION 0.7
FIELDS x y z normal_x normal_y normal_z
SIZE 4 4 4 4 4 4
TYPE F F F F F F
COUNT 1 1 1 1 1 1
WIDTH 535
HEIGHT 1
VIEWPOINT 0 0 0 1 0 0 0
POINTS 535
DATA ascii
-2.199134198 -1.799038358 -0.0008607187268 -0.000794729199 0.0002458921501 -0.999999654
-2.200724005 -1.599418524 -0.0004587356955 -0.0003811571784 -2.36059079e-05 -0.9999999271
-2.199230302 -1.399673093 -0.0007763103952 -0.0004089224782 2.770313503e-05 -0.999999916
-2.199334941 -1.200647287 -0.0001530092106 -0.0004345504937 8.073846276e-05 -0.9999999023
-2.19989563 -0.9999984677 0.0003723258312 0.0001204766085 0.0005430048272 -0.9999998453
-2.199694627 -0.799015916 0.0009988438184 9.596160752e-05 0.0006458237857 -0.9999997869
-2.199967081 -0.6008096018 0.0004556865979 0.0001398408504 0.0007305157904 -0.9999997234
-2.199046672 -0.4003633472 -7.758222832e-05 0.0002808570992 0.0001271307451 -0.9999999525
-2.200150446 -0.2008971617 0.0003445288624 0.0001048088034 -0.0003057600318 -0.9999999478
-2.200293325 0.0005749277493 0.0006642401506 0.0002075868197 2.171826795e-05 -0.9999999782
-2.199357538 0.199833332 -0.0003569086355 0.0001818782437 0.00014657477 -0.9999999727
-2.199502358 0.4006027789 -1.748510722e-05 -0.0003604045338 -0.0001692212607 -0.9999999207
-2.199213938 0.5992878174 0.0007581375593 -5.039226818e-05 -0.0006375928151 -0.9999997955
-2.20080781 0.799307051 6.768002655e-05 0.0007624480621 -0.000788508656 -0.9999993985
-2.200864963 0.9991056142 -0.0009989625117 0.0004314763614 -0.0004631254871 -0.9999997997
-2.200127367 1.200549248 -0.0009303232994 0.0002626940934 -0.0002591165145 -0.9999999319
-2.199695485 1.400646255 -0.0006639983028 0.0006524993182 0.0002664490759 -0.9999997516
-2.200706273 1.600721602 0.0006462492199 0.0003856328364 0.0007465875658 -0.9999996469
-2.199922116 1.8006384 -0.0008144878452 0.000234506612 0.0002569263987 -0.9999999395
-2.200211037 2.000475595 -0.0004850960814 0.0004253633893 0.0002323133817 -0.9999998825
-2.199495342 2.200008357 0.0005005319759 4.644441909e-05 -7.568267582e-07 -0.9999999989
-2.200070641 2.399735809 -0.000561621567 0.0003684107133 0.0003720200787 -0.9999998629
-2.200583241 2.600502982 -0.0007621793039 -0.0002928435405 5.280651635e-05 -0.9999999557
-2.200828035 2.799352583 -0.0006493069771 -0.0003425955648 0.0001787999519 -0.9999999253
-2.199353785 2.999797013 0.0009807769147 -0.0002827502419 -9.425379448e-07 -0.99999996
-2.200725577 3.20030708 -0.0001025409856 -0.0006299901603 0.0001704684194 -0.999999787
-2.200214164 3.400750168 0.0009511912917 -0.0004117433072 0.0001256528888 -0.9999999073
-2.199254282 3.599384601 -0.0005584041576 -9.927747809e-05 5.450207268e-05 -0.9999999936
-2.199687852 3.799578167 0.0004694502616 -0.0001029195386 5.35970042e-05 -0.9999999933
-1.999867159 -3.999898182 0.0006570938497 0.0004088959093 -0.0001421057981 -0.9999999063
-1.999578934 -3.800946844 -0.0009010817257 0.000237133077 1.418520471e-05 -0.9999999718
-1.999796883 -3.600027616 -0.0004796306893 0.0003509696502 0.0001742578533 -0.9999999232
-2.000162688 -3.399484179 0.0006532229693 0.0004358579886 -0.0004298024117 -0.9999998126
-1.999877554 -3.200229261 -0.000458606477 4.115236515e-05 6.193050961e-05 -0.9999999972
-1.999956163 -3.000370501 0.0001281902741 0.0001517268475 0.0001038039545 -0.9999999831
-1.999646695 -2.800867842 -0.00099786507 2.532351996e-05 -0.000479375394 -0.9999998848
-2.000575446 -2.599210977 0.0002925815265 -0.000450061718 -0.0003643754818 -0.9999998323
-2.000656079 -2.399219472 -6.008811943e-05 -0.0005948925724 -0.0004347305414 -0.9999997286
-2.000047816 -2.199128916 -0.0008810266156 -0.0001631033732 -0.0002928442727 -0.9999999438
-2.000569643 -1.999828457 -0.0006090269808 -0.0003358407247 0.0001114531815 -0.9999999374
-1.999640946 -1.800571815 -0.0008016860588 -0.0004479920669 0.0001200424787 -0.9999998924
-2.00058603 -1.600154532 -0.0006477234017 -0.0002850704752 0.0003003111388 -0.9999999143
-2.000730616 -1.399279436 -0.0003592055928 -0.0002736407657 0.0001050711879 -0.999999957
-2.000278483 -1.200889459 -0.000285260753 -0.0004430093642 0.0002221375562 -0.9999998772
-2.000470386 -0.9997790299 -0.0005892194047 -0.0002925394814 0.0009518586897 -0.9999995042
-1.999223269 -0.7991406668 -0.0008003378856 -0.0003142131912 0.0008072241611 -0.9999996248
-2.000785194 -0.6007693471 0.0002391385126 -1.839818715e-05 0.0005684447193 -0.9999998383
-2.000756062 -0.3992952354 0.0005085430299 -0.0005285870205 0.0003265518914 -0.999999807
-1.999360382 -0.1999478789 0.000993354423 -0.0002082442915 -0.0003901361023 -0.9999999022
-2.00091165 -0.0001974700716 -0.0003521266621 8.587551365e-05 -0.0002764661773 -0.9999999581
-1.999102709 0.2001537219 0.0006123819309 -0.0003406670914 -0.0002081983763 -0.9999999203
-2.000659318 0.4009572683 -2.720906247e-06 -0.0002438887495 -0.0004853146887 -0.9999998525
-2.000012656 0.6009417695 -0.0002385352776 0.0002199501834 7.365896745e-05 -0.9999999731
-2.00020495 0.8001695054 -0.0007438947789 0.0004342879158 -0.0006760029614 -0.9999996772
-2.000357829 0.9993864166 -0.0007934330418 0.0005709508145 -0.000510060128 -0.9999997069
-1.999267711 1.200178662 -0.0002826544169 0.0007919707717 1.114956774e-05 -0.9999996863
-2.000182661 1.399863038 0.0002662983643 0.0005610275249 0.0002381568438 -0.9999998143
-1.999146461 1.600865559 -0.0002170160409 0.0005856552194 0.000476832458 -0.9999997148
-2.000341475 1.799902093 0.0001358684609 0.0004086730964 0.0004235123398 -0.9999998268
-2.000076364 2.000317507 0.0001087980468 0.0003755323579 0.0003446394594 -0.9999998701
-2.000358569 2.199691462 -0.0002428144249 0.0002435609644 0.0003956151693 -0.9999998921
-2.00081072 2.399332125 0.0004462276043 0.0002135486602 -0.0001691611051 -0.9999999629
-2.000221807 2.599429078 0.0001253448211 -3.018090703e-05 -0.0002857601839 -0.9999999587
-1.999488921 2.799514845 0.0006535797638 0.0001648769165 -0.000126658875 -0.9999999784
-1.99914499 3.000194789 0.000337895318 -0.0008014418783 0.0001491946342 -0.9999996677
-2.000894848 3.20089104 -0.0002150305315 -0.0004812867984 0.0001634664843 -0.9999998708
-1.999152199 3.400157955 -0.0009907624023 -0.0002380648517 8.600982917e-05 -0.999999968
-2.000922916 3.600360838 0.0001253360277 -0.0002037674104 0.0003889018146 -0.9999999036
-2.000946935 3.80048692 0.0007042906741 -0.0001007510758 0.0004501930192 -0.9999998936
-1.800007165 -4.000068485 -0.0009890537823 -6.2179556e-05 0.0003649387079 -0.9999999315
-1.799426701 -3.800338568 0.0007575272396 0.0001468499394 0.000238345903 -0.9999999608
-1.800253879 -3.599869844 -0.0004593164236 -0.0002447042624 -7.229198109e-05 -0.9999999674
-1.800678823 -3.399450184 -6.819042307e-06 0.0003113751321 2.728810442e-05 -0.9999999512
-1.799927024 -3.199069168 0.0009271598244 0.0003703119858 -0.0002870997912 -0.9999998902
-1.799288716 -3.000624781 0.0001885453886 0.0001777943776 -0.0001698594467 -0.9999999698
-1.799243705 -2.800251072 -0.0007977876681 5.004069359e-05 -0.0004009179583 -0.9999999184
-1.799378074 -2.600036473 0.0001287853607 0.0002404954611 -0.0008858499727 -0.9999995787
-1.799035711 -2.399785577 -0.0001500412287 0.0001714632706 -0.0004317315438 -0.9999998921
-1.800260031 -2.200164761 -0.0007632018336 -0.0002036790187 -3.83727545e-06 -0.9999999793
-1.799410499 -1.999324566 -0.0004312057309 0.0006263785141 3.814096472e-05 -0.9999998031
-1.800392407 -1.799251331 -0.0009520592889 0.0006501674149 0.0001624051531 -0.9999997755
-1.799959085 -1.600072649 0.0003802535392 0.0003753545031 5.538847443e-05 -0.999999928
-1.800673217 -1.399663339 -0.0002465319843 -5.672360431e-05 -0.0001077596247 -0.9999999926
-1.79976257 -1.20091981 -7.654560563e-05 -0.0001826830796 0.0001047548646 -0.9999999778
-1.799955498 -1.000571347 -0.0007207526916 -0.0001604435457 0.0004755877438 -0.999999874
-1.800623051 -0.8003117178 -0.0008063797014 -0.0003897817933 0.0004569936886 -0.9999998196
-1.79910536 -0.6001900119 0.000617939205 -0.0007454869206 0.0004143561043 -0.9999996363
-1.799051166 -0.4008385294 0.0003033389359 -0.0005557445104 0.0002458088886 -0.9999998154
-1.799257182 -0.1997315311 -0.0001419477573 -0.0003892046279 5.279100028e-05 -0.9999999229
-1.800137847 -0.000928202228 6.920150258e-05 -0.0007953958316 -0.000268764526 -0.9999996476
-1.799012914 0.2009174151 -0.0009192015423 -0.0003410546256 0.0001594417586 -0.9999999291
-1.799588406 0.3996035297 0.0008059783068 7.864371247e-05 0.0005584846898 -0.999999841
-1.800909771 0.6008717482 0.0006749514876 0.0002175126783 0.0002201369024 -0.9999999521
-1.800764991 0.7991196487 0.0006694153287 0.0006081073624 -0.0001727408497 -0.9999998002
-1.800688485 1.000069796 0.0008314897158 0.001043876848 -0.0005256409286 -0.999999317
-1.799865104 1.199794467 -0.0001099678903 0.0008348718154 -0.000280713197 -0.9999996121
-1.800873766 1.400937505 -0.0003786916298 0.0003789863213 1.1575552e-05 -0.9999999281
-1.800621273 1.599572095 0.0009287463898 0.0004507598028 0.000127136538 -0.9999998903
-1.800811428 1.800734606 0.0004156877888 0.0002817199612 0.0003354325075 -0.9999999041
-1.799339962 2.000951795 0.000684309311 0.0001397653925 0.0001935214852 -0.9999999715
-1.799113235 2.199253871 0.0005915771303 0.0002078319047 -0.0002187087747 -0.9999999545
-1.799908649 2.400086991 0.0007978431526 0.0002030954229 -0.0001871693191 -0.9999999619
-1.799056392 2.600409677 -3.412322106e-05 -1.156900786e-05 -7.784010088e-05 -0.9999999969
-1.800087192 2.799772683 -0.0002768019409 -7.564820858e-05 -0.0004024329388 -0.9999999162
-1.800216986 2.999179506 -0.0008451278295 -0.0001896177989 -0.0005780863234 -0.9999998149
-1.79944026 3.199892146 0.0008613689771 -8.684837022e-05 6.033465182e-05 -0.9999999944
-1.799775558 3.399070352 -0.0006849533174 -0.0004911799559 0.0003912635485 -0.9999998028
-1.80058836 3.600951472 -0.0005625915477 -0.000166300655 0.0003818316102 -0.9999999133
-1.799968489 3.800872354 0.0009543854598 1.736911773e-05 0.001108465296 -0.9999993855
-1.600527279 -4.000901765 -0.0006927963349 -9.538356882e-05 0.0003059476521 -0.9999999486
-1.600873343 -3.800609752 0.0001371394294 -0.0002039270013 0.0001216508143 -0.9999999718
-1.599175102 -3.599925562 0.0002519791134 0.0001609360013 0.0001066527552 -0.9999999814
-1.600596265 -3.399398833 0.000235577817 0.0002388811645 0.0003795907588 -0.9999998994
-1.599271726 -3.199102314 -0.0003041984485 0.0007083065515 -0.0001365290039 -0.9999997398
-1.600818842 -3.000548142 -0.0001243168686 0.0004847054594 -0.0003814596158 -0.9999998098
-1.599108613 -2.80024338 0.0005415464273 0.0006171960836 -0.0004568139439 -0.9999997052
-1.599919047 -2.600634382 -0.0003585317621 0.0002586978182 -0.001054854477 -0.9999994102
-1.599693616 -2.399654293 -0.0001304805064 0.0008308668286 -0.0003639417326 -0.9999995886
-1.600542709 -2.199556186 -0.0006622539168 0.0007082492223 2.291545352e-05 -0.9999997489
-1.599126661 -2.000624193 -0.0007853752743 0.0004587709348 0.0003197979524 -0.9999998436
-1.600004705 -1.799960901 1.638582956e-05 0.0008556340383 0.0002472269038 -0.9999996034
-1.600126665 -1.59901037 -2.743877466e-05 0.0009646052421 -0.0001663147714 -0.9999995209
-1.600044107 -1.400156468 -0.0008663484906 0.0008179434277 -0.0001323924005 -0.9999996567
-1.599814087 -1.200544064 0.0002752179605 0.000497563246 -0.0002335310251 -0.9999998489
-1.600898333 -0.9990372258 -6.198984197e-05 0.0002265871937 0.0005933476443 -0.9999997983
-1.599206489 -0.8000488777 -0.0008793383629 -8.92219843e-05 0.0007225319721 -0.999999735
-1.599355573 -0.5997036325 0.0005635140951 0.0001588280921 0.0003822644833 -0.9999999143
-1.60014366 -0.3997241265 0.0007124580076 -0.0002450961723 0.000255829517 -0.9999999372
-1.599737869 -0.2003046527 0.0003250591887 -0.0004388529131 -9.633993142e-05 -0.9999998991
-1.599656292 0.000921173925 -0.0002581753569 -0.0001506954085 -0.0003516703318 -0.9999999268
-1.600149836 0.2006242459 1.152462949e-05 -7.73481894e-05 4.445372847e-05 -0.999999996
-1.599526854 0.3999194189 -0.0005690097164 -9.460173832e-05 0.0005566215837 -0.9999998406
-1.599509592 0.5992623103 -0.0006028326729 8.867338488e-05 0.0002953170396 -0.9999999525
-1.59974635 0.8004945396 0.0007893757737 0.0003228579331 9.892338968e-05 -0.999999943
-1.600454827 0.9992214485 0.000912093319 0.0002523274869 -0.0003624437749 -0.9999999025
-1.600691154 1.199395334 -0.0004173410929 0.0004552667078 -0.0004020935306 -0.9999998155
-1.599941217 1.400765651 0.0005210920455 0.0005041402381 -0.000348189325 -0.9999998123
-1.599583685 1.599350361 -0.0002846347369 -0.000284349425 -1.836084846e-05 -0.9999999594
-1.60004319 1.799294852 -0.0004531405957 0.0001098271959 0.0002538657635 -0.9999999617
-1.600383334 1.999254552 0.0001004793838 7.588064294e-05 -0.0001365347144 -0.9999999878
-1.599589944 2.199139863 -3.775379647e-05 -0.0003006590397 -4.546266922e-05 -0.9999999538
-1.599435578 2.40049598 0.0006301461924 -0.0004908506431 0.0001740959756 -0.9999998644
-1.600103519 2.600641114 -0.0005184938576 -0.0002732058089 -0.0001036547366 -0.9999999573
-1.600278379 2.799352711 -6.503092114e-05 2.768689283e-05 -0.0002078000368 -0.999999978
-1.60021588 2.999481854 0.0005035614185 -0.000186114261 -0.0003193574553 -0.9999999317
-1.600372306 3.199545609 -0.0007382193383 2.866028688e-05 0.0001496874706 -0.9999999884
-1.600122357 3.399605929 -0.0002614543173 0.0001506670551 0.00055175359 -0.9999998364
-1.600528005 3.600526311 0.0008600066947 0.0001304495169 0.0008369904408 -0.9999996412
-1.600004136 3.800285997 0.0007343445532 0.0003395548087 0.0006985955853 -0.9999996983
-1.399002341 -3.999772967 0.0007795589331 -0.0001718886732 -6.047158082e-05 -0.9999999834
-1.399182784 -3.799417097 -7.813721785e-05 -2.7101723e-05 0.0002339293425 -0.9999999723
-1.400837692 -3.600968389 -4.559873343e-05 2.877978557e-05 0.000660169827 -0.9999997817
-1.400011371 -3.400185275 0.0001363347026 -8.723711945e-05 9.868582901e-05 -0.9999999913
-1.399895675 -3.199326774 -0.0007826857935 0.0005839550839 0.0001877487875 -0.9999998119
-1.400549645 -2.99941399 0.0006956737344 0.0005640835499 -0.0002042433398 -0.99999982
-1.399010352 -2.799254176 0.0007797980141 0.0003879332986 -0.0006019244618 -0.9999997436
-1.400371304 -2.600196677 -0.0004638297904 0.0002676089016 -0.0003623983354 -0.9999998985
-1.399787401 -2.399122389 -0.000310718227 0.0005333702484 -0.0003463086204 -0.9999997978
-1.399885996 -2.200407401 -0.0006604000525 0.0008303549339 -0.0001342291752 -0.9999996462
-1.400609629 -2.000884109 0.000898587046 0.0006896437036 0.0005546504653 -0.9999996084
-1.400194241 -1.799331758 0.0003626589454 0.0008431426213 0.0001869678314 -0.9999996271
-1.400616158 -1.600649076 0.000623976403 0.0005158516947 -0.0001747762744 -0.9999998517
-1.400470577 -1.39917343 -0.0007198891906 0.0003570861373 -0.0005152347253 -0.9999998035
-1.399644583 -1.199371052 -0.0005294872232 0.0006711404591 -0.0004890647351 -0.9999996552
-1.400447585 -0.9990709622 -0.0004708047893 0.0005999419426 3.47770065e-05 -0.9999998194
-1.400140086 -0.8001349688 -0.0004939305001 0.0002998965286 0.0001753108055 -0.9999999397
-1.399448418 -0.5994563013 -0.0002433639716 -6.836938971e-07 0.0003379413489 -0.9999999429
-1.399329748 -0.4005738501 -0.0009913884487 -0.0001326268445 0.000396936021 -0.9999999124
-1.399857665 -0.1990118445 -0.0009227113803 -0.0002090165571 -0.000180054333 -0.9999999619
-1.400584004 3.782928497e-05 0.0006198814729 0.0002127551506 0.000261095742 -0.9999999433
-1.400821916 0.1997904693 0.0004941516013 0.0001147488299 0.0002961910643 -0.9999999496
-1.400256914 0.3993776728 -0.0006090083452 0.0001643654815 0.0006687098858 -0.9999997629
-1.400179902 0.5999588341 0.0007236288356 -2.099708278e-05 0.0006318554898 -0.9999998002
-1.399715495 0.8003808039 0.0009659743431 -0.00030050612 -0.0001824365593 -0.9999999382
-1.400176313 0.9998067088 0.0008466939355 -0.0001225535393 -0.0001174754587 -0.9999999856
-1.400508249 1.20045963 0.0005091462764 -9.759849877e-05 -0.0007406320622 -0.999999721
-1.400804424 1.399936463 -0.0005988750574 -0.0001266255225 -0.0005213208512 -0.9999998561
-1.400629249 1.599927656 -0.000421140585 -0.0001148603867 2.962294399e-05 -0.999999993
-1.399407879 1.80081521 0.0006054412106 -0.0004240428852 -9.925793159e-05 -0.9999999052
-1.400467938 1.999548269 -0.0004905432998 -0.0009154303747 -2.613616195e-05 -0.9999995807
-1.400729924 2.200887597 -0.0001959044037 -0.0005363462104 -6.284212795e-05 -0.9999998542
-1.400550621 2.400693342 -0.0002016093947 -0.0006600329134 -0.0002465078163 -0.9999997518
-1.400929766 2.599323883 0.0002785006807 -0.0007850234125 -0.0001095156848 -0.9999996859
-1.399434189 2.799421869 0.0008347911785 -0.0007422116947 -0.0002669612006 -0.9999996889
-1.399298006 3.000696762 -0.0005446777064 -0.0001441046824 -1.52815756e-05 -0.9999999895
-1.400898928 3.200734847 -0.0003883995425 0.0001062858089 5.047889979e-05 -0.9999999931
-1.399762167 3.400519934 -0.000743413483 0.0001299934311 0.0008073553889 -0.9999996656
-1.399438323 3.600877023 0.0004567499315 9.88472955e-05 0.001068536348 -0.9999994242
-1.400117555 3.800753356 5.491526015e-05 6.260870357e-05 0.001190214858 -0.9999992897
-1.199510458 -3.999358988 0.0004987057234 -0.000384039107 0.0005232789926 -0.9999997893
-1.20042429 -3.800764312 -0.0005233229413 -0.0002288392545 0.0002970642721 -0.9999999297
-1.19999425 -3.599989446 0.0001652886986 -0.000472473378 0.000338718119 -0.999999831
-1.200209796 -3.399426217 0.0008263075007 -0.0002998286868 0.0006047395776 -0.9999997722
-1.20050655 -3.199526954 0.0003559437051 -0.0003697617147 0.00063012295 -0.9999997331
-1.199953819 -3.00062294 0.0005904645172 0.0001427717693 -0.0003451298948 -0.9999999303
-1.199078747 -2.799556327 0.0008357199933 0.0002081899807 -0.0008263096908 -0.9999996369
-1.199031629 -2.600295899 0.0002764471059 2.18804659e-05 -0.0005627908751 -0.9999998414
-1.200052135 -2.399026743 -0.000812384352 0.0001826699354 -0.0002990438741 -0.9999999386
-1.20017525 -2.199248922 -0.0004318973789 0.0005419029322 0.0005241037012 -0.9999997158
-1.199424414 -2.000234434 0.0009599570798 0.0004750143386 0.0004856615795 -0.9999997692
-1.19923294 -1.800397359 0.0005403862271 0.0009354177722 5.820584354e-05 -0.9999995608
-1.200326287 -1.599787274 0.0003169615368 0.0001357068626 -0.0003177566984 -0.9999999403
-1.199340809 -1.400951098 -0.0005596842177 0.0004018805997 -0.0001149682374 -0.9999999126
-1.199576164 -1.199872954 -8.789843598e-06 0.0004206279739 -0.0004364866999 -0.9999998163
-1.20088958 -1.000303448 0.0007302004638 0.0003836399864 0.0003390341085 -0.9999998689
-1.200938214 -0.8002071275 0.0008902965753 8.10351645e-05 0.0002604499911 -0.9999999628
-1.200898239 -0.5995005885 -0.0004847747676 -0.0003298658987 -0.0004276075397 -0.9999998542
-1.199266782 -0.399507864 0.0007714103417 -0.0003460751946 0.0001581568236 -0.9999999276
-1.20056815 -0.1999374145 0.0005585398871 -6.967554675e-05 0.0002014071673 -0.9999999773
-1.200508601 -0.0005385073895 -0.000945635733 0.0004927695738 0.0002090649335 -0.9999998567
-1.199082969 0.2004200338 0.000271120708 0.0008012373852 -3.807905467e-05 -0.9999996783
-1.199512011 0.4000632258 -4.773235782e-05 0.0002120366052 3.658059443e-05 -0.9999999769
-1.200100936 0.6002808784 -0.0005969300492 1.263990089e-05 8.550942771e-05 -0.9999999963
-1.199223883 0.8006235047 -0.0003008727771 -0.0002648788866 1.339805812e-05 -0.9999999648
-1.199842781 0.9992820546 0.0009446924959 -0.0006899199958 0.0001688507023 -0.9999997477
-1.199194215 1.200843795 -0.0003356739046 -0.0003868581439 -0.0003096590855 -0.9999998772
-1.200661731 1.399423544 -0.0008199972179 -0.0001167495897 -0.0002400310155 -0.9999999644
-1.200759779 1.599142609 0.0009796461384 -0.0001307194937 -0.0003985394559 -0.999999912
-1.200851885 1.799265084 0.0006545091912 -0.0002951479481 -0.0002001082165 -0.9999999364
-1.19983952 2.000548834 0.0002618240155 -0.0001539896104 0.0002037862119 -0.9999999674
-1.19923565 2.200276935 4.425018581e-05 -0.0001732861156 -0.000743365848 -0.9999997087
-1.199574501 2.399894786 -0.0003078723542 -0.0004406538483 5.238910755e-05 -0.9999999015
-1.200064695 2.599339428 0.0005931434596 -0.0004391288474 6.10235546e-05 -0.9999999017
-1.200478592 2.799307063 -0.0005072955164 -0.000479560759 -0.0001654618326 -0.9999998713
-1.19931586 2.999660403 0.000372099739 0.0001256045827 7.479494362e-05 -0.9999999893
-1.199287181 3.199155489 0.0005300488104 -0.0003554475306 0.0004062506834 -0.9999998543
-1.200384669 3.399433245 0.0003778029049 -9.628621392e-05 0.0007739806554 -0.9999996958
-1.199180407 3.599590038 0.0001376676108 -9.467157884e-05 0.001067267798 -0.999999426
-1.200420332 3.800108571 0.0002437240613 -0.0001463045344 0.001110439817 -0.9999993728
-0.9997793292 -3.999752907 -0.0007298404156 -0.0004266125461 0.0004205172786 -0.9999998206
-0.9996129191 -3.799650499 0.0003651762444 -0.0005945482238 0.0004604452037 -0.9999997173
-1.000851859 -3.600106322 -0.0001819297359 -0.0007161726618 0.0002075069609 -0.999999722
-1.000826577 -3.400555264 -0.0001180747364 -0.0007793717302 0.001001504182 -0.9999991948
-0.9995141874 -3.200525876 0.0006594998202 -0.0005615987783 0.0007339115272 -0.999999573
-0.9999084034 -2.999479157 -5.488803333e-05 -0.0003545712782 1.841791545e-05 -0.999999937
-1.000001612 -2.799760561 0.0008559412163 -0.0001379776226 -0.0002736381529 -0.999999953
-1.000016375 -2.599942685 0.0002039939271 -0.00021968317 -0.0007559721841 -0.9999996901
-0.9995249697 -2.400856299 3.137487704e-05 -6.928100916e-06 -0.0002295407871 -0.9999999736
-1.000036817 -2.19915663 -1.298683913e-05 0.000244957578 0.0006145212339 -0.9999997812
-1.000063359 -1.9990756 -9.88470728e-05 0.0002204985459 0.0004112195196 -0.9999998911
-1.000638231 -1.800566168 -0.0008096249233 8.077940432e-05 -0.0001901620868 -0.9999999787
-1.000998864 -1.600136109 0.0005384851626 -0.0002008924668 -0.0003247470214 -0.9999999271
-0.9995330671 -1.400935702 0.0001399658072 0.0003211711424 -0.0002258061802 -0.9999999229
-1.000691434 -1.199117847 -0.0006652700007 -5.375792615e-05 1.792062231e-05 -0.9999999984
-0.9997467216 -1.000347523 0.0002831226519 0.0003278337531 -8.074610739e-05 -0.999999943
-1.000175483 -0.7994807139 -0.0005386417493 0.0002605248292 -0.0004219464129 -0.999999877
-0.9991884163 -0.5999995807 0.0005121862954 -4.267727164e-05 -0.0002097021064 -0.9999999771
-0.9993005396 -0.3990023428 -0.0005521086688 -0.0003292006656 0.000579934884 -0.9999997777
-1.000426215 -0.2004991338 -0.0004742573357 -0.0002692811253 0.0009138761488 -0.9999995462
-0.9998351105 0.0009870450463 0.0009805561742 0.0002131385176 0.0004715934863 -0.9999998661
-0.9999464535 0.2002780544 0.0007199410874 7.794466174e-05 0.0004169193423 -0.9999999101
-0.9991341331 0.3994077213 5.708345788e-05 -0.0002167523819 -0.0003293514153 -0.9999999223
-0.9993343259 0.5996064042 -0.000120381915 -0.0001785342211 -0.0005237819414 -0.9999998469
-0.9990287578 0.8009700934 0.0008122136215 -0.0005928999621 -0.0002151509417 -0.9999998011
-0.9994031033 0.999538261 -0.0003582998519 -0.0007352066044 -0.0004824710823 -0.9999996133
-0.9999054343 1.200121555 1.100563871e-05 -0.0006591454423 -0.0002455452921 -0.9999997526
-0.9997266594 1.399816646 0.0004983483146 -0.0008344526619 -5.785300694e-05 -0.9999996502
-1.0003329 1.599661354 -0.0007455480762 -0.0002841510891 -8.671260099e-07 -0.9999999596
-1.000622576 1.800701042 -0.0001074353228 1.057092967e-05 7.739343894e-06 -0.9999999999
-1.000544264 2.000518682 0.0001079622516 -6.799142959e-05 -0.0004223033237 -0.9999999085
-1.000957688 2.199632723 -0.0006459971778 -0.0001897556884 -3.338522742e-05 -0.9999999814
-0.9996882543 2.399550062 -0.0008701064416 -0.0002558273688 -0.0002172427413 -0.9999999437
-1.00089013 2.600163455 -0.0009565530886 0.0002106819137 -0.0001885126158 -0.99999996
-0.9993024158 2.799310794 0.0002131326704 0.0002571783734 2.099136332e-05 -0.9999999667
-1.000110624 2.999885703 -0.0008564057153 -8.623473129e-05 0.0003221983839 -0.9999999444
-0.9993944955 3.200786105 -0.0009779666652 0.0002741585822 0.0005785560014 -0.9999997951
-1.000642792 3.400807808 9.89872256e-05 0.0002249010524 0.0004737131004 -0.9999998625
-1.000699921 3.599405581 0.0003199724885 -0.0001144271835 0.0008671996848 -0.9999996174
-0.9995503664 3.800198854 0.0009062967598 -0.0002075124314 0.001034335782 -0.9999994435
-0.8000118728 -4.000399456 -4.553418005e-05 -0.0003823844083 0.0001912930937 -0.9999999086
-0.8002806674 -3.800551168 -0.0009080735013 -0.0007447139129 0.0001721917061 -0.9999997079
-0.800295575 -3.599577181 -0.0009631243942 -0.0006936564197 0.0004407048297 -0.9999996623
-0.800121643 -3.399711981 0.0002208082183 -0.0005090160989 0.0007843968388 -0.9999995628
-0.7994467031 -3.199378961 0.0004234116418 -0.0006279418687 0.0008267578539 -0.9999994611
-0.8007944046 -3.000049955 0.000206811915 -0.001053944543 4.887564164e-05 -0.9999994434
-0.8005088679 -2.800914896 -0.0005528193582 -0.000262473935 -6.943543297e-05 -0.9999999631
-0.8000902112 -2.600172139 -0.0006466660373 0.0001064526092 -0.0002819901422 -0.9999999546
-0.7993511689 -2.399148627 -0.0005973033619 0.0001090177224 0.0001618391133 -0.999999981
-0.7991408542 -2.200964278 0.0008499249454 0.0004553167108 0.0008908198283 -0.9999994996
-0.7990961424 -2.000975896 0.0005260385936 -0.0001025937533 0.0004590137594 -0.9999998894
-0.7990595969 -1.799188196 0.0009414203224 -5.810148893e-05 -5.616597892e-05 -0.9999999967
-0.799899353 -1.600843688 0.0006995783956 -0.0001403373673 -0.0003054470628 -0.9999999435
-0.7997723435 -1.399770527 -0.0001654927803 -0.000134150663 -0.000271572678 -0.9999999541
-0.799856316 -1.20069284 0.0004795400531 -0.0001305474905 -0.0001328793188 -0.9999999827
-0.8008499654 -0.9995404385 0.0006979568452 0.0001109201055 -0.0001480638665 -0.9999999829
-0.8000550626 -0.7999803393 -0.0003755714542 -0.0002418966838 -0.0004734150237 -0.9999998587
-0.7990610828 -0.5995337511 -0.0002620228934 -0.0005777867978 -0.000303454118 -0.999999787
-0.8006503852 -0.4005608408 -7.215542778e-05 0.0001229668867 7.637024047e-05 -0.9999999895
-0.7991148632 -0.1995317073 -0.0005695125036 -0.0003264337573 0.0009211264525 -0.9999995225
-0.7992808777 -0.000243598954 0.0007034443655 -0.0007090812416 0.0005815263261 -0.9999995795
-0.8005166008 0.2002373212 0.0008533409762 -0.0004580020797 0.0002189072284 -0.9999998712
-0.800484212 0.4003858532 0.0009746252399 -0.0001015504518 -0.0002975456224 -0.9999999506
-0.8006988034 0.5991768046 0.0003483903849 -0.0004293237999 -0.0004998309549 -0.9999997829
-0.8003205281 0.799142489 -4.938876423e-05 -0.0005762022192 -0.000319097124 -0.9999997831
-0.7994924586 0.9995702448 -0.000329906245 -0.000393379009 -0.0003344387089 -0.9999998667
-0.7993086012 1.200040144 0.0006854639376 -0.0002649218709 -1.593241735e-05 -0.9999999648
-0.800107221 1.40090595 0.0003015891794 -0.0003181713574 0.0001773859527 -0.9999999337
-0.8007682023 1.600770186 -2.146961834e-05 -0.0005553464438 0.0002943848036 -0.9999998025
-0.8007167221 1.79930538 0.0003750678702 -0.0004993371496 7.615340441e-05 -0.9999998724
-0.800905255 1.999573188 -0.0007204248191 -0.0003929306536 -0.0003816600432 -0.99999985
-0.8001178451 2.199828708 4.375286938e-05 -0.000160534205 -6.459837528e-05 -0.999999985
-0.8004407273 2.399064087 0.0002287722131 0.0001180564984 -0.0002503982177 -0.9999999617
-0.800252564 2.60030267 -0.0007826660584 -5.324294495e-05 0.0001679159339 -0.9999999845
-0.8009724453 2.799496588 -8.690535401e-05 3.063757631e-05 3.525995442e-05 -0.9999999989
-0.8002118561 3.000620605 -0.0002443247116 0.0002956280111 0.0004359091207 -0.9999998613
-0.7999391176 3.200187031 -0.0009563372167 0.0003583558573 0.0005916052918 -0.9999997608
-0.7999697332 3.399689663 -0.0001574397446 -0.0001177234175 0.0003616179397 -0.9999999277
-0.8007994252 3.600565641 0.0008848085016 -0.0001745957741 0.0002991514644 -0.99999994
-0.8009554624 3.800202746 0.0005276881346 -0.0004479680758 0.0005349904839 -0.9999997566
-0.6004303848 -3.999424889 0.0002647101015 -0.0002583135596 -0.0004261871297 -0.9999998758
-0.5991416747 -3.79903799 -0.000915307772 -0.00017470417 -3.719473841e-05 -0.999999984
-0.6001101245 -3.599906024 -0.0007065135336 -0.0003593757024 0.0005664648846 -0.999999775
-0.6003274283 -3.399024705 -0.0009675390873 -0.0003459718893 0.0005479686884 -0.99999979
-0.6000949841 -3.199314691 -0.0003521974746 -0.0002611927793 0.0008893794253 -0.9999995704
-0.600040403 -2.999043909 -5.024632705e-05 -0.0003073633433 0.000305500778 -0.9999999061
-0.6007381574 -2.800896557 0.0008908331449 -0.0005040447282 8.974635e-05 -0.9999998689
-0.6004683812 -2.599991872 -0.0008185964678 -0.0002147271307 0.0001370554673 -0.9999999676
-0.6001526898 -2.399139789 4.825987262e-06 0.0002567232997 9.131587443e-05 -0.9999999629
-0.5990577297 -2.200482329 9.090479408e-06 0.0004194552893 -1.383160353e-05 -0.9999999119
-0.5992809384 -2.000103495 -0.0004410252529 4.575297041e-05 -1.713633369e-05 -0.9999999988
-0.5992890493 -1.800220221 6.144658212e-05 3.311380829e-05 -0.0001876083607 -0.9999999819
-0.5990469459 -1.600627033 -0.0003971987266 -0.0001574724778 -0.0003381317797 -0.9999999304
-0.6009378608 -1.400216325 -0.0005996331388 -0.000422313234 -0.0001136305307 -0.9999999044
-0.5996399301 -1.200637357 0.0003496255048 -0.0003177425164 -0.0003125057042 -0.9999999007
-0.6004730491 -1.000289564 -0.0003022786959 -0.0004222214367 -0.0001254144845 -0.999999903
-0.5995664965 -0.8000669815 -0.0002774022023 -0.0001616622653 -0.0001569017333 -0.9999999746
-0.5992947546 -0.5998560987 -0.0005723383574 0.0001929242768 -0.0004193895082 -0.9999998934
-0.5991998174 -0.4003146994 -0.0009220412449 -0.0001093693399 0.0004248020913 -0.9999999038
-0.6000107996 -0.2007521239 -0.0005230671126 -0.0007603863681 0.0005137881668 -0.9999995789
-0.5995057783 -0.0007384963732 0.0006138884487 -0.00058678669 0.0003762400902 -0.9999997571
-0.5991261854 0.2002130642 0.000420718384 -0.0006011745814 0.0002608744396 -0.9999997853
-0.5995728268 0.4009856159 -0.0003169234756 -0.0006789930131 -0.0004096104823 -0.9999996856
-0.6006742869 0.6000383345 6.649961966e-05 -0.0001817649837 -0.0005517062708 -0.9999998313
-0.600644175 0.8002262188 -0.000971750533 -0.0003542174985 -0.0001855200434 -0.9999999201
-0.5991446632 0.9995291486 -0.0009208795832 -0.0002418231153 -8.677221457e-05 -0.999999967
-0.6007835011 1.199480498 -0.0004521876628 -0.0001621086198 -0.0004290729378 -0.9999998948
-0.60093438 1.39955871 -0.000614116527 0.0001365627595 0.0003948794915 -0.9999999127
-0.6002427581 1.599770335 -0.0003219845188 -0.0001897044256 1.228132302e-05 -0.9999999819
-0.6003441522 1.799179463 -0.0009495901057 -0.0002319021715 -4.863979924e-05 -0.9999999719
-0.6005957714 2.000513299 0.0009816195311 -0.0003936545947 0.0001383084687 -0.999999913
-0.5991429476 2.200008439 6.364771156e-05 8.419453832e-05 -0.0001082062664 -0.9999999906
-0.6003708369 2.400547879 0.0005295133759 7.589161528e-05 0.0002738109791 -0.9999999596
-0.5993114553 2.600791009 -0.0001313015035 -1.559040647e-05 -0.0002167627549 -0.9999999764
-0.5994662489 2.800612797 -0.000383080755 0.0004339568033 0.0002840898547 -0.9999998655
-0.5991415155 2.999188683 0.0009885383583 0.0002750095536 0.0001019369898 -0.999999957
-0.5994598186 3.199186542 0.0003124592962 -6.25632554e-05 2.008790516e-06 -0.999999998
-0.6009316412 3.400540374 0.0005984458433 -0.0004454388119 0.0004655760387 -0.9999997924
-0.5997951795 3.600713721 -0.0008042334396 -0.0005912872126 0.0001833413231 -0.9999998084
-0.6004481523 3.799828355 -0.0009150840943 -0.0005320546011 -8.431798104e-05 -0.9999998549
-0.4001035678 -4.000469573 -0.0002145299758 0.0001904926531 -9.577288203e-05 -0.9999999773
-0.4001497947 -3.799241177 -0.0004593180589 0.0003353432524 9.742866793e-05 -0.999999939
-0.3992125137 -3.600148058 -0.0003443845586 0.0004254932999 0.0004649026279 -0.9999998014
-0.3999949759 -3.400164513 -0.0004852553739 0.0001397597349 0.0009195647157 -0.9999995674
-0.3999946414 -3.200696397 -0.000296140114 0.0002119657753 0.0006110980559 -0.9999997908
-0.3998684196 -3.000173184 0.0006478247221 3.904141691e-05 -0.0001145693356 -0.9999999927
-0.4004865565 -2.799060457 0.0005694440417 -0.0003705983638 5.537837744e-05 -0.9999999298
-0.3990648139 -2.599323727 -0.0007157921483 -0.0002141662635 0.0004644206415 -0.9999998692
-0.3999470798 -2.400660043 0.0006364547053 0.000135650667 0.0003377564378 -0.9999999338
-0.3998316757 -2.200473101 0.000859197944 -8.010317969e-05 0.0003822915612 -0.9999999237
-0.4007696279 -1.999872275 0.0004420811093 -7.862515373e-05 0.0003623881423 -0.9999999312
-0.4008823029 -1.799804288 0.0006318024309 -4.002604505e-05 -0.0007863579177 -0.99999969
-0.4008649454 -1.599975514 -0.0004828856437 -0.0005097073678 -0.0005594968663 -0.9999997136
-0.3996741511 -1.400762645 0.0008741028613 -0.0004519066288 -0.0002504611553 -0.9999998665
-0.3992105428 -1.200628051 -0.0003534682313 -5.642920558e-05 5.544989682e-05 -0.9999999969
-0.3998247301 -0.9995638753 -0.0001146879697 -0.0003219663002 -0.0001058205269 -0.9999999426
-0.4006874174 -0.800791697 0.0009995306738 -0.0001056648721 -0.000382263187 -0.9999999214
-0.4000892958 -0.5992549365 -3.524799074e-05 0.0003976088923 -0.0002074989032 -0.9999998994
-0.3991552847 -0.4008244812 -0.0007719616173 0.0005357481538 -0.0002107685285 -0.9999998343
-0.3991407356 -0.1991050139 -0.0003705651051 8.288796942e-05 -0.0001576160621 -0.9999999841
-0.4002896702 -9.509953033e-05 -0.0001676766399 -0.0006656773004 0.0004033189436 -0.9999996971
-0.4006199096 0.2007967508 -0.0004933847986 -0.0004698320132 0.0007776454969 -0.9999995873
-0.3995894552 0.3991343114 -0.0009224973369 -0.0004974990666 4.145005029e-05 -0.9999998754
-0.3996925391 0.5996780317 0.0003109187854 2.102504406e-05 -0.0004277763142 -0.9999999083
-0.4008119576 0.8008997028 0.0004970289338 -0.0002010198104 -0.0001423236517 -0.9999999697
-0.3992474655 0.9992729411 -0.0003596780622 0.0002060424855 -0.0001127557894 -0.9999999724
-0.4002633117 1.200074345 -0.000406263029 0.000129725423 -0.0001233081376 -0.999999984
-0.4008787385 1.399737757 -0.0004909013707 0.0001115992806 -2.915660259e-05 -0.9999999933
-0.4002281574 1.599393919 -0.0004762072509 7.275085801e-05 -0.0002331069318 -0.9999999702
-0.3997460953 1.799776308 -0.0003092332137 -1.274054835e-05 -0.0001914623273 -0.9999999816
-0.3999321887 2.000543721 -0.0002422640873 -0.0001295892224 0.000412876227 -0.9999999064
-0.399824961 2.200932405 4.396022824e-05 5.346089599e-05 0.0001054562107 -0.999999993
-0.3991804048 2.400587345 -0.0008825626367 9.56670346e-05 0.0002526574395 -0.9999999635
-0.4001418023 2.600396637 0.0009734238249 0.0003770075657 0.0002461167937 -0.9999998986
-0.4000832474 2.799185571 0.0001240183494 0.0001313150642 0.0001503905936 -0.9999999801
-0.4007468724 3.000503039 1.535399492e-05 0.0002562462957 0.0001898514239 -0.9999999491
-0.3995531373 3.200738724 0.0002578960343 -0.0003135279349 -7.646767672e-05 -0.9999999479
-0.3997751213 3.400509141 0.0006849100029 -8.506667179e-05 -0.0002365050586 -0.9999999684
-0.3992618924 3.59907286 0.0001123805936 -0.0005448068507 -0.0003008556168 -0.9999998063
-0.4005674614 3.800720692 0.0002967953704 -0.0004226635738 3.880871636e-05 -0.9999999099
-0.200159555 -4.000623792 -0.0003219527482 0.0004774003435 0.0001240517648 -0.9999998784
-0.1995924446 -3.800591281 -0.0008128341093 0.0009247034174 0.0001646853674 -0.9999995589
-0.1992239425 -3.599471579 -0.0006004101387 0.0009145890731 0.0002936485831 -0.9999995386
-0.2004153769 -3.39905586 0.0004163689735 0.0004260499594 0.000827466155 -0.9999995669
-0.199778956 -3.200384743 -0.0004017497117 0.0002871493123 0.0005644919585 -0.9999997994
-0.2009209528 -2.999543036 -0.0009136495499 0.0001106228587 -0.0002146127313 -0.9999999709
-0.2009902853 -2.79954101 0.0008977475143 0.0001930357442 0.000207763882 -0.9999999598
-0.1994869939 -2.60005672 -2.790950088e-05 -0.0001107052063 0.0002490568001 -0.9999999629
-0.2001277272 -2.400350713 4.342842837e-05 -1.673323321e-05 0.0002980824896 -0.9999999554
-0.2001376981 -2.199803664 0.000796240161 -0.0001218493324 0.0004316976133 -0.9999998994
-0.1990099812 -2.000842513 -0.0002306330547 -3.954851162e-05 -0.0004552379303 -0.9999998956
-0.2006385876 -1.800295759 -0.0004250539629 -9.637956794e-05 -0.0006240483936 -0.9999998006
-0.2006509257 -1.599471848 -7.422514342e-06 3.98660651e-05 -0.0006277831813 -0.9999998021
-0.1991615088 -1.400934815 -0.0008660439737 0.0002824972819 -0.0003757741877 -0.9999998895
-0.2001934528 -1.200839445 -0.0004745408072 -0.0002552004875 -0.0001747111008 -0.9999999522
-0.1990279405 -1.000582081 -0.0006037645172 -0.0001089436699 0.0003412313743 -0.9999999358
-0.1998527187 -0.8000040034 0.0001608765944 0.00050687328 0.0002431254456 -0.999999842
-0.2002465294 -0.5993464753 -0.0007228388971 0.0007745918964 0.0003090640088 -0.9999996522
-0.2001432147 -0.3996204763 0.0007364728806 0.0004556872309 -0.0002644754692 -0.9999998612
-0.2002608568 -0.1998645088 -0.00086172011 0.0007745893303 -0.0004078583467 -0.9999996168
-0.2006593618 -0.0008617236751 0.000455761784 0.0001996291928 0.0001152727234 -0.9999999734
-0.2004238801 0.2004474906 -0.0008672034419 -0.0001306920183 0.0001741158268 -0.9999999763
-0.1992749044 0.4006710604 -0.0008221425139 -0.0003948596597 0.000221702278 -0.9999998975
-0.200952487 0.5991125776 0.0007072603463 0.0001779198524 -0.0001017360698 -0.999999979
-0.200530593 0.8000965466 -0.0001475115936 0.0005929239335 0.0002592589571 -0.9999997906
-0.1994089489 0.9999777966 1.321681323e-06 0.0007276060756 -0.0002791863355 -0.9999996963
-0.1990218161 1.199300259 0.0006614078775 0.0005389285899 5.81375896e-05 -0.9999998531
-0.2008965005 1.399955298 0.0007726696479 0.0003032366548 -2.039861053e-05 -0.9999999538
-0.1996695721 1.600370429 -0.0004733654355 0.0005969195579 -0.0002267721967 -0.9999997961
-0.2001628504 1.799733162 4.288642032e-05 0.0003391913078 -0.000332057138 -0.9999998873
-0.2000755441 1.999653797 -0.0003890387753 0.0005135034144 -0.0001682820723 -0.999999854
-0.2004982942 2.199730094 -0.0007001170441 0.0001407110942 0.0003857817854 -0.9999999157
-0.1992557914 2.400204239 -0.0007324271488 0.0002379317354 -0.0001411784901 -0.9999999617
-0.1996122813 2.600695333 -0.0005249286559 0.0003481669163 0.0001448661684 -0.9999999289
-0.2006987988 2.799017235 -0.0009054993223 -8.758233609e-05 -0.0001755146038 -0.9999999808
-0.1994754973 3.000974373 -0.000910239355 -0.0004305808788 -9.003134234e-05 -0.9999999032
-0.1995038581 3.199143724 0.0001842656498 -0.0003768526197 -0.0002006482193 -0.9999999089
-0.1994878494 3.399718409 -0.0009781305578 -0.0006287954438 -0.0002943765389 -0.999999759
-0.1998096213 3.600982489 -0.0004847651543 -0.0003990263378 -0.0001135986697 -0.9999999139
-0.2006210174 3.799247852 0.0001105112398 -0.0005912540652 -0.0001276354041 -0.9999998171
0.0001928901987 -3.999415458 0.0005061465472 0.0005554652001 0.0005318743354 -0.9999997043
0.0007850829896 -3.799388455 -0.0005054658338 0.0007537325548 0.0004403366158 -0.999999619
0.0001117548098 -3.600405176 -0.0003404292409 0.001032835568 0.0002803909854 -0.9999994273
0.0008638887385 -3.399636208 0.0009491808265 0.0009036701894 -5.832333099e-05 -0.99999959
-0.0001661749266 -3.199925125 -2.576916017e-05 0.0004230274091 0.0002304235304 -0.999999884
-0.000785425885 -3.000526596 5.527272121e-05 0.0001544148656 -0.0003834694691 -0.9999999146
-0.0008652513897 -2.799137076 -0.0007523126361 -0.000254498087 -0.0001221265874 -0.9999999602
-0.0006040385072 -2.599469358 -0.0008061309164 -7.052447978e-05 0.0002588259433 -0.999999964
0.0008005561992 -2.399548598 -0.0008627582858 -0.0002138495397 0.000379565163 -0.9999999051
0.0003836941226 -2.199736743 0.0005146988655 -0.0003120133856 0.000570255143 -0.9999997887
0.000656395705 -1.999563299 0.0001723525905 0.0001663013341 -0.0003953831854 -0.999999908
-0.0003550733628 -1.799605453 0.0009139431693 1.276762109e-05 -9.18613522e-05 -0.9999999957
0.0001750435611 -1.59967131 -0.0001257439156 0.000280381603 -0.0005841019349 -0.9999997901
0.0005122416195 -1.399004665 -0.0006792213519 0.0002286602972 -0.0005113019858 -0.9999998431
-0.000595189441 -1.199921124 -3.724920548e-05 1.640379919e-05 1.115418346e-05 -0.9999999998
0.000143139569 -1.000901852 -0.0001914470873 0.000289844481 0.000475048956 -0.9999998452
0.0001659565241 -0.7998296173 0.0003146679235 0.0003095891924 0.0007775297221 -0.9999996498
0.000440432058 -0.5997169056 0.0005804863108 0.0004427911279 2.299990042e-05 -0.9999999017
0.0002495212694 -0.3999249847 0.0002123928578 0.0006222147086 -0.0003873461641 -0.9999997314
-0.0007976132665 -0.2004536869 5.479956132e-05 0.001124892048 -0.0005775040661 -0.9999992006
0.0007459744308 0.0003581031126 -0.0008191838431 0.0001717803566 -0.0003736934599 -0.9999999154
0.0001845499009 0.199443476 0.0004680331196 0.0001088284421 0.0001397944693 -0.9999999843
0.000654881705 0.4001869125 0.0001827252195 0.0001909432435 0.0003068224162 -0.9999999347
-0.0003228171136 0.5998925 0.0007282167076 0.0002550994854 0.0005130917507 -0.9999998358
0.0004466406619 0.8000395073 -0.0002635352275 0.0005883901284 -1.796987949e-05 -0.9999998267
-0.0008992405234 0.9992860148 -0.0006139496209 0.0002718277236 -1.677797479e-05 -0.9999999629
-0.0002532329135 1.200888287 1.030678972e-05 0.0006471018663 -5.10549487e-05 -0.9999997893
-0.0005303196735 1.3992115 -0.0003233889508 0.0005761655274 -2.735659911e-05 -0.9999998336
0.0006314612711 1.599766686 0.000545011612 0.0003240591393 -9.719974717e-05 -0.9999999428
0.0006054099523 1.799221642 0.0002173195053 0.0006134568397 -7.869772095e-05 -0.9999998087
0.0009181921267 1.999804276 -0.000898111822 0.0005443889999 6.320837366e-05 -0.9999998498
0.0008466053805 2.200767333 4.428289442e-05 0.0008418510929 1.25089005e-05 -0.9999996456
0.0001045062407 2.399423482 0.0006389015111 0.0004657029982 0.0004228863345 -0.9999998021
-2.799923216e-06 2.599067756 0.0003660299129 0.0003941501176 4.083604329e-05 -0.9999999215
0.0009009925396 2.800658301 -0.0004456037196 0.0002133853921 -0.0005856641854 -0.9999998057
-0.0008933498301 3.000880703 0.0008741254498 -0.0005345820464 -0.0008586536804 -0.9999994885
6.483063943e-05 3.200284635 -7.479987858e-05 -0.0002710525683 -6.150641062e-05 -0.9999999614
-0.0001604692658 3.399238897 -0.0008064942033 -0.0005826399269 4.129744112e-05 -0.9999998294
-0.0005345357066 3.600673281 -0.0007083353985 -0.0003467679131 -0.0003143457857 -0.9999998905
-0.0005466026962 3.800097228 -0.0005697375638 -0.0004333582597 -0.0002443746007 -0.9999998762
0.1993264134 -3.999873368 -0.000263813458 0.0001897891592 0.0009545245285 -0.9999995264
0.2002523186 -3.799175589 -0.0006980137371 0.0003481623705 0.000773446608 -0.9999996403
0.2008268673 -3.59919502 0.0006581751667 0.0005557827394 0.0003861324506 -0.999999771
0.2002625718 -3.399759707 0.0002784253199 0.0008308544801 8.423222107e-05 -0.9999996513
0.2003809911 -3.200967036 0.0009161851583 0.0006358579073 -0.0001569886872 -0.9999997855
0.2001712075 -2.999437068 -0.0002454363219 -0.0001751633798 -0.0007312161212 -0.9999997173
0.1990247944 -2.799980531 1.438023863e-05 0.000219582318 -0.0002211761197 -0.9999999514
0.1998739786 -2.600320566 -0.0005003478244 0.0003372582584 0.0001898633241 -0.9999999251
0.2000550897 -2.400249444 0.0009398637661 9.811064322e-05 0.0004494728642 -0.9999998942
0.1993458546 -2.200360669 -0.0004120790582 -6.650945136e-05 0.0005057031598 -0.9999998699
0.2000866184 -2.000001439 0.0002874809308 8.029229438e-05 0.0001297538118 -0.9999999884
0.2009000035 -1.800429558 0.0003855431385 -3.220746046e-05 -0.0004055938511 -0.9999999172
0.1990500804 -1.600475223 -7.256054401e-05 2.734303831e-05 -0.0004170142645 -0.9999999127
0.1990619896 -1.399764661 0.0003566212168 8.123467332e-05 -0.0007105948656 -0.9999997442
0.2004934634 -1.199966851 0.00020788933 2.506996347e-05 -6.633555687e-05 -0.9999999975
0.1997921305 -1.000917494 -0.0008000962885 0.0003453743128 0.0001994555568 -0.9999999205
0.2003099918 -0.7990088894 -0.0009683935217 -0.0002884667065 0.000721599243 -0.999999698
0.200115167 -0.5994979825 0.000653549656 0.0005429344629 0.000233742477 -0.9999998253
0.2000904098 -0.399760168 0.0003934498905 -0.0001886134343 -9.452913968e-05 -0.9999999777
0.2007179325 -0.2007554209 0.0008523643925 8.235772047e-05 -0.000343103163 -0.9999999377
0.1990520348 0.0006723995019 -0.0008465191469 0.0005348989689 -0.0004256248001 -0.9999997664
0.1993892564 0.1990077883 -0.0001094865889 0.0003042203478 -0.0001145225016 -0.9999999472
0.1996687185 0.3993319858 -9.781967839e-05 0.0005502198831 0.0001221914117 -0.9999998412
0.1998047418 0.6005353221 0.0007862606121 0.000339811732 0.0001621699384 -0.9999999291
0.2003051345 0.7992488208 -0.0004092184106 2.469164888e-05 0.0002711190178 -0.9999999629
0.2008266366 0.999177469 -0.0001862883212 -0.0003072399799 -7.62499545e-05 -0.9999999499
0.2008850092 1.20090133 -0.0001775936459 0.0002693967301 -4.487023366e-05 -0.9999999627
0.2003347938 1.399913491 0.0005069210789 0.0001093872849 0.0001093098407 -0.999999988
0.1990631627 1.599288314 0.0002283976071 0.0001005261963 -0.0002041092576 -0.9999999741
0.1994651045 1.800332105 -0.0002975541451 0.0001509648652 0.0002102181751 -0.9999999665
0.2007732911 2.000638519 -1.432439986e-05 0.0005159513697 0.0002987257271 -0.9999998223
0.2005457902 2.199542276 -1.148044638e-05 0.0008765820125 0.0001967723394 -0.9999995964
0.1993949641 2.400721772 0.0006461352331 0.001080178166 -0.00021490803 -0.9999993935
0.2008042993 2.600754954 0.0009191925241 0.0003242460554 -0.000610790181 -0.9999997609
0.1994566725 2.800863649 0.0001424263827 0.0002155676548 -0.0005630664552 -0.9999998182
0.1998449902 3.000120748 -0.0003147952867 0.0001286476623 -0.0006873019539 -0.9999997555
0.199577106 3.199482629 -0.0008351440211 0.0001598342796 -0.000305945206 -0.9999999404
0.1999931298 3.400775523 0.0002603039385 1.796951642e-05 -0.0003062649868 -0.9999999529
0.2000419513 3.599857186 -7.119674737e-05 -0.0002050517187 -4.670789167e-05 -0.9999999779
0.1994185547 3.800645872 -0.0006032340734 -4.998750934e-06 -0.0002410666322 -0.9999999709
0.4004332455 -3.99948003 0.0001497380841 5.829321865e-05 0.0008746857462 -0.9999996158
0.4007258527 -3.800417899 0.0007632344425 0.0001627453464 0.0009222424004 -0.9999995615
0.4004588209 -3.5994025 0.0003291594191 0.0001073301753 0.0005923469301 -0.9999998188
0.400692686 -3.399013802 -0.000159674291 0.0001233993631 -4.531316562e-05 -0.9999999914
0.4006278314 -3.19951084 -9.425966858e-05 1.770945485e-05 -0.0007483149176 -0.9999997199
0.400853898 -3.000211148 0.0001309318326 0.0003211480652 -0.0007180769959 -0.9999996906
0.3992118847 -2.80054845 0.0006813923411 0.0003032727706 -7.784745662e-05 -0.999999951
0.3997931054 -2.600211832 -0.0005080379636 0.0004574923259 0.0003416583039 -0.999999837
0.3999832207 -2.399388366 0.0007903282355 0.0003509647736 0.0003689096502 -0.9999998704
0.3991402289 -2.199850359 -6.545326422e-05 5.520387782e-05 0.0001083892952 -0.9999999926
0.4002285637 -2.000105449 -0.0002027103583 -0.0002411970338 3.765568413e-05 -0.9999999702
0.3999437614 -1.799836002 1.966422064e-06 -0.0001746597118 -0.0003987157696 -0.9999999053
0.3999442889 -1.599364329 0.0004912959825 -0.0007048887565 -0.0005312853299 -0.9999996104
0.399682757 -1.399398846 0.000707301338 -0.0001345424244 -0.00015062472 -0.9999999796
0.3993069844 -1.199834635 -0.0004293760128 0.0001004786102 0.0001939486043 -0.9999999761
0.4004783446 -1.000522429 0.0003428070483 1.475677356e-05 0.0004014397158 -0.9999999193
0.3995102493 -0.7999777125 0.0008972929358 -3.296391411e-05 0.0005482547013 -0.9999998492
0.3997626151 -0.599248523 0.0009738891624 -4.277186842e-05 0.0001152670857 -0.9999999924
0.4007497017 -0.4006682679 0.0006393164391 -0.0001923110355 -0.0004117945652 -0.9999998967
0.3990642988 -0.2002133962 0.0007414667466 -4.347222899e-05 -0.0004693923404 -0.9999998889
0.4003775044 6.548085468e-05 -0.0002242719498 -0.0002765841009 -0.0002884096251 -0.9999999202
0.4006245939 0.2004191168 -6.318936077e-05 0.0002781259027 0.0002492906051 -0.9999999303
0.4007849687 0.399459896 -0.0006592169817 0.00068323562 0.000520984673 -0.9999996309
0.4002856075 0.6009439887 -0.0005054868534 0.0001325412643 -0.0001482288884 -0.9999999802
0.3994993408 0.7992789977 0.0007211271105 0.0004436257319 -0.0002454984726 -0.9999998715
0.3994527951 1.000006357 0.000981744956 3.735663948e-07 9.305216482e-05 -0.9999999957
