# .PCD v0.7 - Point Cloud Data file format
VERSION 0.7
FIELDS x y z rgb
SIZE 4 4 4 4
TYPE F F F F
COUNT 1 1 1 1
WIDTH 918
HEIGHT 1
VIEWPOINT 0 0 0 1 0 0 0
POINTS 918
DATA ascii
8.328023911 5.246595383 6.648703575 1.951743355e-38
7.647294044 5.929725647 6.319186211 1.796231595e-38
7.108292103 6.219163418 6.061647415 1.667948046e-38
3.370856285 8.661081314 4.267166138 7.977285273e-39
2.276629686 0.2439973056 8.95065403 5.328930668e-39
7.313669205 4.175253868 3.244114399 1.711954423e-38
0.9090551734 6.635599613 9.292676926 2.173174296e-39
4.202955723 0.2471658885 9.524327278 9.828890999e-39
0.911226213 3.251793146 7.900447369 2.142272862e-39
1.069223046 3.347048283 8.160363197 2.510342121e-39
2.342365742 0.420037955 8.983222008 5.514396723e-39
3.619760036 0.3205327988 8.750585556 8.452047995e-39
1.566592932 3.349167109 8.574257851 3.704218985e-39
1.996602416 0.4953489304 8.483675003 4.688576506e-39
1.588006496 2.98989296 8.429411888 3.700984788e-39
2.880988121 4.059051514 3.293628454 6.741417099e-39
1.783787608 5.792167187 4.383906364 4.185846669e-39
1.520529747 0.3982151151 5.476575375 3.585367856e-39
1.828765631 0.4329128861 6.249684334 4.320437182e-39
1.922048211 0.4362562299 6.362236023 4.504112379e-39
4.330811024 0.5179623365 9.583429337 1.010691002e-38
1.787198067 0.5150918365 6.064771652 4.229313546e-39
1.932805896 0.6492363811 8.095991135 4.50632643e-39
2.141657829 0.6768712997 8.641978264 5.057359025e-39
2.309141159 0.6777589321 8.780542374 5.424706615e-39
4.30002737 0.6055648327 9.502939224 1.010762468e-38
1.591590166 0.5645108223 5.390075684 3.770469574e-39
2.016808033 0.7418278456 8.217791557 4.690720492e-39
1.360849857 7.491731644 2.734341383 3.282858346e-39
3.789651632 0.6848346591 8.864562988 8.914458272e-39
3.885387897 0.6842968464 8.975572586 9.098133468e-39
0.8444562554 3.775684357 7.84926796 2.055099486e-39
1.65338254 0.6698927879 5.651268482 3.863391077e-39
4.08723259 0.7783917189 9.183166504 9.558394152e-39
2.294016123 0.7662557364 6.223174095 5.333856232e-39
2.513811827 0.7657760978 6.409048557 5.884874814e-39
0.6264585853 7.236310959 8.343833923 1.53603191e-39
1.540485144 2.989601612 8.388723373 3.609147891e-39
0.3660330474 6.79000473 8.342914581 8.888786484e-40
4.276771069 3.631989479 8.944804192 1.004375069e-38
2.42479372 0.847877562 6.170130253 5.701912879e-39
1.124329448 4.480592251 8.045582771 2.704412149e-39
0.3973563313 7.485965729 7.461998463 9.87139098e-40
3.918335915 0.9351689219 8.691939354 9.192470282e-39
4.401498795 3.810978174 9.013336182 1.032069491e-38
0.6556754112 5.834088802 9.183588982 1.614982467e-39
0.6514940262 5.574975014 9.195555687 1.61247134e-39
0.2272011042 5.826378345 8.792773247 6.047779964e-40
1.061862946 8.699958801 2.592719555 2.559289476e-39
2.842465401 1.139317632 8.077022552 6.622847631e-39
2.375513077 1.693727016 6.923494816 5.617638789e-39
3.351363897 8.950454712 5.018942833 7.887987528e-39
2.653087139 1.193006396 6.097355366 6.255792912e-39
2.863595724 1.201889873 6.421196461 6.715341737e-39
0.446149081 6.618818283 8.707004547 1.071127323e-39
0.7966330051 6.633656025 9.202392578 1.897665005e-39
0.3653841913 5.569467545 8.976791382 8.777803645e-40
4.30486393 1.248878956 8.301795006 1.011368109e-38
0.7727023959 3.508944035 7.718551159 1.868913163e-39
5.159371376 4.506121635 8.721680641 1.216385081e-38
0.9109563231 4.561326981 7.732605457 2.154105427e-39
0.8344239593 3.952114105 7.854297638 1.965057652e-39
2.948169231 1.398068786 8.046038628 6.900863845e-39
4.293245316 1.332567692 8.195632935 1.002255885e-38
4.532360554 3.983830929 8.955651283 1.068982776e-38
1.104406595 3.871911049 8.21251297 2.607201272e-39
0.848110795 3.513188124 7.855499268 2.052947092e-39
1.009884119 3.43439126 8.117247581 2.419581421e-39
1.486187935 2.808656216 8.231100082 3.51587186e-39
0.5677235723 5.3972435 9.076208115 1.335525718e-39
0.3795848787 6.96579361 8.201350212 9.825022014e-40
4.681468487 3.476112366 9.717683792 1.096069875e-38
1.135607839 3.699427128 8.295215607 2.69724731e-39
2.740043402 1.514796257 6.910642624 6.442721923e-39
2.784539461 1.560230374 7.665730476 6.534942777e-39
2.94827199 1.575547934 8.039707184 6.902298774e-39
4.568211555 1.528617263 8.653579712 1.066721781e-38
5.303489685 1.543183088 9.461356163 1.241212026e-38
4.776112556 3.210065603 9.840212822 1.123369831e-38
0.6756623983 4.208039761 7.580781937 1.599858253e-39
1.410079598 3.25978899 8.428011894 3.336153931e-39
2.734924316 1.640523911 7.491093636 6.44381914e-39
1.034008026 4.218801975 8.053828239 2.426753266e-39
5.220084667 1.632807136 9.452356339 1.222952546e-38
1.455808759 7.552185535 1.885694504 3.467215975e-39
2.175588846 3.577321768 3.516320705 5.083723055e-39
1.089203835 3.611293316 8.241715431 2.604691547e-39
1.229249835 2.988642693 8.086163521 2.874452711e-39
2.832509995 1.746554136 7.830472946 6.628578941e-39
4.451788425 1.702260494 8.445529938 1.048497333e-38
1.664930344 3.700244188 8.666241646 3.891121372e-39
0.8971733451 3.34102869 7.916324615 2.142991729e-39
0.5755077004 5.748236179 9.174772263 1.43059401e-39
1.781340957 6.171669006 4.385087013 4.18907526e-39
3.693042278 8.662896156 4.003760338 8.711959433e-39
2.659162998 1.818968773 7.465388298 6.261581676e-39
2.695733309 1.823964238 7.536265373 6.353778707e-39
3.111606121 1.849824071 8.289083481 7.272160294e-39
4.559682369 1.8004632 8.654275894 1.066972893e-38
1.072351217 8.975077629 1.982609272 2.561779584e-39
0.4831562638 6.095729828 9.038205147 1.157951776e-39
0.7849823236 3.33339572 7.709145546 1.867478234e-39
1.210553408 5.307697296 4.667963028 2.89549601e-39
4.764911652 4.159119606 8.883630753 1.124227426e-38
0.6949498653 5.484586239 4.966396332 1.703439433e-39
4.652797699 2.651904583 9.435956955 1.095315556e-38
4.466156006 1.978486776 8.533660889 1.048748867e-38
4.811610699 4.331726551 8.796593666 1.133554048e-38
0.3935477436 6.09359169 8.919901848 9.742765794e-40
6.540739536 4.909922123 3.465886593 1.538149272e-38
2.969871044 2.118586063 8.227735519 6.999163531e-39
5.510279655 4.911347389 3.280991077 1.299376422e-38
0.8101915121 6.282273293 9.432641983 1.986280317e-39
5.703474045 4.913162231 3.258550167 1.33611048e-38
3.073924541 3.778217793 3.327413797 7.197726122e-39
2.224349499 6.641366482 4.57563448 5.29541301e-39
2.041592836 4.600333214 3.665400743 4.817547813e-39
4.898181438 2.196644306 9.489770889 1.149986515e-38
1.780473948 6.454303741 4.424664021 4.191946521e-39
1.244901896 4.962600231 8.624550819 2.984603178e-39
1.33257091 6.262965202 4.4472332 3.179962401e-39
4.552083969 3.559995651 9.530161858 1.068590272e-38
1.133340597 7.893653393 4.287734032 2.735487344e-39
4.542276859 2.743187189 9.340682983 1.067836233e-38
0.3376704156 5.480568886 8.898306847 8.770600971e-40
0.6013590693 6.099617481 9.237785339 1.433825404e-39
0.5483078361 4.027496338 7.401049137 1.32291123e-39
0.5287381411 4.458302975 7.176657677 1.235013382e-39
4.453849792 2.355125427 8.769536972 1.04910844e-38
4.852233887 2.382248402 9.541016579 1.140982472e-38
1.393656969 6.926592827 4.548267365 3.369736048e-39
0.7048150897 3.504330873 7.572793961 1.685236566e-39
0.7669538856 6.545145988 9.243618965 1.896948942e-39
2.946685553 3.684596062 3.322864056 6.921502168e-39
0.6907430887 5.86888361 4.814641953 1.707021152e-39
4.50521183 2.452887535 8.933948517 1.05840017e-38
4.562263966 2.459373713 9.093826294 1.06758428e-38
1.020102978 4.739252567 7.819343567 2.43140838e-39
0.8230814934 7.241494656 8.558811188 1.995216398e-39
4.427227974 2.63404727 8.908508301 1.040176423e-38
3.112094402 0.1579239368 3.528833628 7.256565243e-39
7.756087303 5.336076736 4.439529896 1.823237419e-38
0.1906499416 6.264390469 7.632931709 5.168479191e-40
0.2044458091 6.264908791 7.716056824 5.168507217e-40
0.2122749537 6.26510334 7.798667908 5.168535243e-40
0.2197892368 6.265167713 7.88162756 6.08691823e-40
1.102665782 8.303869247 3.559320927 2.647572681e-39
3.042536974 0.4410379529 4.127773285 7.167261893e-39
1.809696913 0.5783510208 4.851107121 4.22998757e-39
1.524332047 8.111298561 1.487959504 3.655895208e-39
1.681083322 8.750174522 0.6530109644 4.028947484e-39
1.945773482 0.5739190578 7.503391266 4.597423442e-39
1.030860662 8.480693817 2.810919762 2.465309993e-39
3.278704166 0.5075434446 3.279308796 7.718962908e-39
1.673189521 0.6833313704 5.599570274 3.955225171e-39
0.4257892966 6.340978146 5.314365387 1.068495684e-39
2.048266172 0.7235429287 4.857618809 4.782076745e-39
1.90881753 0.7411087751 5.103945732 4.506937396e-39
0.1321010292 6.348493576 6.306788921 3.338467474e-40
1.238800287 7.670176506 4.14159584 3.009195966e-39
2.559175253 0.689907968 6.596140385 5.975999852e-39
0.2985247374 6.885513306 7.048087597 7.980731066e-40
0.1372777075 6.352770805 7.135795593 4.257116709e-40
2.560260296 0.7783656716 6.42918539 5.976711711e-39
2.081464767 0.833538413 8.001497269 4.875100542e-39
0.1509257108 6.353223801 7.218747139 4.257144735e-40
3.375391006 0.7746335268 3.692142487 7.90515904e-39
6.431822777 5.741627216 4.050415516 1.511354064e-38
2.275666475 0.8898775578 5.017371178 5.334888989e-39
1.395339489 7.396029949 3.398597717 3.3740002e-39
1.765450954 8.381752014 0.4040827751 4.209380075e-39
0.5699716806 4.570074081 5.408305645 1.419697513e-39
3.302705526 0.8812013865 4.183593273 7.722223729e-39
3.72955513 5.90503931 4.526830196 8.778701878e-39
2.384318352 0.9817043543 7.999921799 5.611219441e-39
5.23427248 5.271217346 3.709213257 1.226232425e-38
3.759754181 0.918290019 3.36013031 8.824578988e-39
2.362385035 1.067706585 5.59902668 5.52001593e-39
2.789535999 1.028933287 6.837162971 6.529891096e-39
1.600639582 8.018642426 0.9910973907 3.838471786e-39
1.389469504 8.477583885 1.815422297 3.291793025e-39
4.019081593 0.9886051416 3.275910854 9.376306627e-39
0.3521989286 6.164541721 5.48062706 8.830366351e-40
2.440535784 1.1462183 5.013103962 5.704383368e-39
1.540780306 8.111169815 1.405240297 3.655892405e-39
2.712682724 1.131639361 7.668465614 6.347327129e-39
0.7934541106 6.959378719 5.145812988 1.900389129e-39
1.417407751 7.118449211 4.388208389 3.371524105e-39
1.219763637 7.490889549 3.978336334 2.915559802e-39
2.516599178 1.323081732 5.847341537 5.889877449e-39
5.143154144 4.966358662 3.461005926 1.207613233e-38
2.597126484 1.400375366 4.680617809 6.074223868e-39
0.4000217021 6.69935751 5.641493797 9.798999901e-40
4.179487228 1.342131376 3.355489731 9.838715502e-39
0.2224742472 6.166744709 5.729819298 6.075385544e-40
0.4810048342 7.413265228 5.811886311 1.170033771e-39
0.1663078964 6.440891743 6.969172478 4.264235305e-40
0.3515112698 7.67620182 6.300573349 8.970566262e-40
1.047553062 9.014796257 1.394633174 2.562117297e-39
1.323245525 8.027130127 2.979640007 3.196053511e-39
4.422430515 1.500159383 2.772402763 1.039114239e-38
4.04168272 1.540066242 4.01795578 9.473189601e-39
1.517601132 8.203178406 1.487512112 3.656612673e-39
7.973680019 5.421476364 4.821829796 1.869228315e-38
4.036441803 3.979593277 3.140595198 9.495400181e-39
1.175871372 8.841923714 1.566734314 2.835835728e-39
4.17125988 1.708727002 3.353624821 9.75046733e-39
3.566105127 0.1671509147 2.692567348 8.35856177e-39
4.577306271 0.189725399 9.55008316 1.074688863e-38
3.844468832 3.976911068 3.165314674 9.036224102e-39
2.302538872 3.862223864 3.442028999 5.453573363e-39
3.779413939 4.159547329 3.236938 8.854349574e-39
1.560876966 8.29738903 1.23533535 3.749515958e-39
3.301620483 8.866805077 4.469036102 7.795414949e-39
1.566554785 7.927152634 1.069432855 3.745921628e-39
0.7041599751 7.670370102 5.560060501 1.723549467e-39
1.446958542 7.389485359 3.149338007 3.465467154e-39
8.085812569 4.661888123 4.038374901 1.89609457e-38
0.8764154315 7.746439457 5.48114872 2.091606114e-39
1.715367317 2.096088886 4.831948757 4.059947008e-39
1.145691395 4.564372063 4.337750435 2.704997892e-39
3.502173901 5.007372856 3.57713747 8.219404424e-39
3.986910582 1.998644352 3.681236744 9.385647683e-39
1.686304927 2.189250708 4.751014233 3.969184907e-39
1.657987356 5.411821365 4.420888424 3.906754258e-39
1.334831953 8.477000237 1.980587363 3.199964535e-39
0.3375101089 6.711020947 8.2920084 8.88158381e-40
1.141002655 2.331410408 5.669537544 2.684597789e-39
3.006852865 4.615300655 3.423168182 7.113785541e-39
1.651828289 6.739141464 4.4508214 3.918951159e-39
1.841617346 8.841923714 0.2356941849 4.396991519e-39
1.33434391 7.487454891 3.315497398 3.191043869e-39
1.50792861 8.11181736 1.57049644 3.564062514e-39
0.2065460533 7.507023335 6.630215645 5.279321899e-40
1.455994964 7.750132561 1.573372006 3.468998426e-39
3.212942839 5.504413605 3.903746843 7.580873352e-39
4.030610085 2.268682957 3.267035961 9.479978892e-39
6.24145937 4.591067791 3.307939768 1.464393329e-38
0.9044306874 2.532228947 6.498819351 2.135766634e-39
1.220868587 7.843049049 3.72611022 2.918779986e-39
7.270470142 5.900373936 4.821473122 1.704354901e-38
0.2449854612 7.416894436 6.2997365 6.190390109e-40
0.2054669857 6.525642872 6.388629913 5.18955472e-40
3.056699038 8.775769234 4.880567551 7.24369852e-39
1.015491486 8.57056427 2.561917305 2.466376382e-39
4.196655273 2.432328224 2.516115904 9.848729181e-39
4.011618614 2.451053858 3.099393368 9.389931452e-39
0.8298062086 2.710394859 6.414749622 1.953527768e-39
1.259410858 7.401796341 4.145390987 3.00668484e-39
1.610575676 9.023932457 0.6501520276 3.847787618e-39
1.249776602 7.667001724 3.06556654 3.00915673e-39
0.7503194213 2.805707693 5.999380112 1.770917559e-39
0.7634281516 2.803323507 6.082174301 1.770561629e-39
2.818855762 3.589723349 3.337532043 6.645278215e-39
0.7932034135 7.318859577 5.226296425 1.903979256e-39
4.605912685 3.988068342 2.617273331 1.078143764e-38
0.2738036513 7.593977928 6.298866272 7.126681691e-40
1.475532651 7.501191616 2.081686735 3.558341013e-39
1.456489682 7.502552032 2.164024591 3.466508319e-39
1.242230296 7.667584896 3.148525715 3.009159533e-39
1.663260221 8.658555031 0.7350093126 3.936397325e-39
7.095523834 5.122708321 3.740404844 1.666935187e-38
4.079685688 2.715876102 2.513530254 9.57573382e-39
4.045035362 2.72186327 2.683940887 9.483903929e-39
3.088651896 5.061541557 3.672950029 7.301412399e-39
0.7060545087 2.982415676 5.336245537 1.68049317e-39
0.6767094135 2.985441685 5.419699669 1.588660477e-39
1.463541746 8.022853851 1.902765632 3.471522165e-39
1.383399844 3.012111187 4.001904488 3.242007693e-39
1.226732373 3.022769928 4.247799397 2.874674116e-39
0.9135379791 3.048901558 4.667135239 2.140364294e-39
0.5810183883 3.0796597 5.666190147 1.406074089e-39
0.5596886277 3.082108974 5.749354839 1.314242797e-39
0.5517183542 3.082983732 5.832118511 1.3142456e-39
0.5679996014 3.085582018 6.659600735 1.314275027e-39
2.030244112 9.283305168 0.04238725454 4.860466782e-39
4.778501987 9.81533432 3.380731344 1.129373414e-38
6.484211922 5.25799942 3.554398775 1.520105453e-38
4.072190285 2.90109849 2.429153681 9.577524679e-39
3.98101449 2.91045475 2.763585806 9.393864897e-39
3.879157543 2.919189453 3.096202612 9.11837102e-39
7.538609505 4.598194599 3.629452705 1.767451727e-38
7.293271065 5.238819599 3.910765648 1.712961256e-38
0.5252118707 3.174104452 5.997664928 1.223133174e-39
4.56178236 5.858127594 4.746815681 1.070653824e-38
3.929755449 3.005929947 2.93045783 9.211277109e-39
2.395352364 0.2697985768 4.276082516 5.604629134e-39
3.407773972 5.485105038 3.930040836 8.040050833e-39
0.8982456923 3.225914478 4.583208561 2.141796421e-39
0.5462655425 3.255130053 5.664133072 1.315673523e-39
0.6499785781 3.252713442 7.158418655 1.591234662e-39
0.1962697506 7.062725544 6.798612595 5.239917387e-40
3.729349375 7.648211002 4.879761219 8.794498715e-39
0.3129756749 7.415792942 6.05355978 8.027001941e-40
0.64355582 7.501127243 5.554639816 1.538084813e-39
8.045748711 5.17227602 4.498999596 1.887379054e-38
4.405108452 5.375471592 3.906887531 1.033486204e-38
3.995465755 5.502599716 4.071721077 9.41758888e-39
1.114001989 3.297842979 4.167475224 2.601675952e-39
0.7860034704 3.410993814 4.668059826 1.868086397e-39
0.5799843073 3.426622152 5.084023476 1.408924331e-39
0.4466438591 3.441279173 5.829905987 1.041967703e-39
0.1920051277 7.15143013 6.798455238 5.247092035e-40
0.3552686572 7.066549301 7.875984192 8.913729596e-40
1.060404897 8.569333076 2.230427027 2.558200667e-39
0.447543025 7.679701328 7.122089386 1.080757046e-39
0.6252641678 3.510207653 4.917150021 1.501829017e-39
0.390997678 3.533164501 6.574594498 9.508762963e-40
0.3786149323 7.066549301 8.041016579 9.83214061e-40
1.386264324 7.661364079 1.987871408 3.284266651e-39
0.5535486937 6.784951687 5.310561657 1.347946828e-39
3.999858379 3.366240263 2.843727827 9.39817389e-39
0.3704326153 3.617617846 5.829013824 8.597316403e-40
0.4005676806 3.621758223 6.90357399 9.516049715e-40
4.017039299 3.456719875 2.926935911 9.398894157e-39
0.5644671917 3.689688683 5.165046692 1.319602764e-39
3.572752476 5.013593674 3.568088531 8.403075417e-39
1.177406549 7.042250633 4.651827812 2.819803472e-39
0.7526124716 7.230349541 5.307808399 1.811070365e-39
1.41595006 7.751493931 1.904074907 3.377175542e-39
1.124111295 3.739677668 4.086446762 2.697454702e-39
1.034830093 3.745269537 4.247236252 2.422312551e-39
0.4143894017 3.788669109 5.663443089 1.045189288e-39
0.3767395616 5.277956009 5.562233925 9.669828209e-40
4.168607235 3.631011009 2.675712109 9.768019995e-39
0.9513356686 3.839261293 4.330864429 2.239361826e-39
5.779289246 4.228528023 2.801986933 1.353866053e-38
3.779067039 4.251808643 3.257066965 8.855067039e-39
6.432862759 5.419402599 3.664190769 1.511065676e-38
4.390342712 5.083571434 3.637034893 1.03323411e-38
5.326302528 4.661693573 3.209980965 1.253243154e-38
6.849928379 5.10974884 3.591399193 1.611797596e-38
8.437876701 3.757904768 3.94341588 1.977921152e-38
2.946062326 5.578149796 3.974648952 6.938743745e-39
6.862388134 3.890688419 2.765939236 1.610682583e-38
2.432796478 5.507070541 4.078499794 5.744169034e-39
6.557769299 3.828012466 2.513091087 1.537177332e-38
5.58065176 5.282361984 3.692075968 1.308920105e-38
9.518481255 2.511889696 5.627040386 2.233918483e-38
3.010186195 4.982492447 3.60573554 7.117021139e-39
4.201549053 5.441822052 3.985612392 9.876404826e-39
5.729722977 5.180764198 3.497923613 1.345545983e-38
4.090417862 9.271965981 3.878654242 9.635691177e-39
3.666124821 5.522102833 4.046611786 8.591426746e-39
3.799825191 5.322664261 3.815060854 8.956966661e-39
5.156230927 9.741598129 2.843686342 1.211951793e-38
5.449090481 5.162168026 3.524507999 1.281261276e-38
3.225345135 8.575681686 4.392186165 7.609230027e-39
6.543561935 5.950395584 4.424695492 1.539121353e-38
3.649702311 5.097761631 3.619980574 8.587465275e-39
3.606111765 0.3891310692 2.755348682 8.452551061e-39
3.014451027 8.356028557 4.54950428 7.147905757e-39
5.997466564 5.947414398 4.436034203 1.410551658e-38
5.353271484 9.614665985 2.701906919 1.26694491e-38
4.16459322 4.713076115 3.305702209 9.777728191e-39
5.263996601 4.275581837 3.06648612 1.234516762e-38
2.291498184 7.838253498 5.172314167 5.39839023e-39
7.352937698 3.513797283 2.937683821 1.72056288e-38
4.826980114 5.143377304 3.552061558 1.134288749e-38
7.849170685 3.618174791 3.302072525 1.840022032e-38
5.478843689 4.296037674 3.039802551 1.289653933e-38
5.77068758 4.307001114 3.034142494 1.35393864e-38
2.202936172 7.738793373 5.149986267 5.213641639e-39
5.383047104 9.430519104 2.659287453 1.266765404e-38
7.29069519 4.645689487 3.564367533 1.712386023e-38
3.785374403 0.5554460883 2.714121342 8.913162071e-39
6.528298855 4.226577759 3.139053822 1.528354757e-38
5.441606522 5.277178288 3.700255156 1.281369456e-38
9.742394447 2.026888609 5.274258614 2.279404491e-38
6.849491596 4.188873768 3.190009594 1.61097097e-38
7.737410069 4.782017231 3.874626637 1.813549683e-38
7.43803072 4.92683363 3.840973854 1.749408188e-38
6.00287056 4.073293209 2.515593767 1.408822877e-38
6.345995903 5.962253094 4.409844398 1.493203465e-38
3.721693754 0.6942299008 2.879991055 8.730931613e-39
4.45911026 4.822643757 3.324041128 1.051348976e-38
6.88355732 5.498646736 3.884380341 1.621340859e-38
8.046679497 5.044371605 4.343277931 1.887270874e-38
8.176712036 3.982360363 3.805050611 1.923034533e-38
3.085151196 5.584369659 3.964133024 7.306085729e-39
2.276334286 7.300198078 4.935668468 5.393359568e-39
2.336321831 7.285166264 4.958638668 5.577030561e-39
4.862156868 4.748971939 3.258185625 1.143112445e-38
6.335233688 4.376467228 3.267259598 1.491764471e-38
6.977668285 5.929855824 4.615439415 1.640105226e-38
7.401042938 5.761389256 4.680914402 1.740980919e-38
7.343907356 5.78283596 4.649195194 1.72261382e-38
5.671707153 5.92208004 4.310353756 1.337046968e-38
6.255148888 4.683529377 3.347484589 1.473648765e-38
3.875509739 0.2470039427 2.597136259 9.093959e-39
4.046885014 5.078711987 3.641609192 9.505821638e-39
9.057983398 2.215084553 5.182106495 2.12342736e-38
8.081837654 3.597971916 3.503111362 1.895124031e-38
7.163366795 4.46918869 3.307740927 1.6846909e-38
5.676915169 3.969491959 2.317613125 1.335246159e-38
4.879453182 4.913939476 3.366188049 1.143256359e-38
5.45115757 5.883980751 4.365908623 1.281909937e-38
6.206753254 4.391499519 3.245597839 1.455030273e-38
6.066556931 4.065031528 2.527916193 1.427189976e-38
3.020533085 5.91702652 4.348751545 7.125657342e-39
8.203937531 5.083701611 4.621081829 1.924041926e-38
5.931598663 3.868548393 2.286238909 1.39027557e-38
5.868291855 3.877820492 2.273651361 1.381092021e-38
5.136981964 3.908487558 2.227062702 1.206640311e-38
3.484164715 0.1377210021 2.729269981 8.174892179e-39
9.462314606 2.469034672 5.517103672 2.21551523e-38
2.372320652 7.025663376 4.81722784 5.57451523e-39
6.178045273 3.818215847 2.358674526 1.454488951e-38
9.191400528 2.007903576 4.952260017 2.150797802e-38
9.510118484 1.966428518 5.01074791 2.233414155e-38
5.910925865 3.693809986 2.186324358 1.390095924e-38
5.931851387 5.824434757 4.275643349 1.392076379e-38
2.281093597 5.608149529 4.280441284 5.377910253e-39
7.16368103 3.414149523 2.738170147 1.683720361e-38
2.477601051 6.906052113 4.820153236 5.848945521e-39
4.519508839 4.344653606 3.138216972 1.060101346e-38
5.286501884 5.959661007 4.599358559 1.245248326e-38
7.81003046 5.436573505 4.633763313 1.832529289e-38
6.617544174 5.381498337 3.715726852 1.556947831e-38
7.360181808 5.558258057 4.298357487 1.731616742e-38
4.330509186 5.558063507 4.161028385 1.015299312e-38
2.030751228 9.127991676 0.01605995558 4.859030451e-39
7.34997654 4.6927948 3.665898085 1.721641599e-38
2.724268913 6.659767628 5.000027657 6.39781311e-39
2.960673809 6.461301327 5.28180027 6.947042234e-39
8.829651833 1.825921297 4.850559235 2.068002082e-38
6.193842888 3.981912613 2.472435951 1.454668738e-38
6.447158813 3.945388317 2.522919416 1.509734303e-38
4.729342937 4.356445789 3.124767542 1.115202644e-38
6.895175457 4.604609489 3.455163956 1.620514233e-38
5.370342731 5.859488964 4.402061462 1.263507105e-38
7.621307373 1.878372431 3.085802794 1.783341611e-38
3.795977831 5.380201817 3.904666662 8.957329597e-39
2.499701262 6.678752422 4.801096916 5.938627222e-39
3.440664291 5.080461502 3.643266678 8.128289196e-39
7.961887836 2.963689804 3.338344097 1.866998849e-38
6.41176939 5.960633278 4.412603855 1.511570704e-38
6.194743156 6.316031933 5.257656574 1.456795208e-38
4.838971138 4.170692444 3.039404869 1.133390096e-38
4.914912701 4.185322762 3.020162582 1.151792929e-38
4.333277702 5.301606178 3.841056824 1.015047078e-38
7.460882664 5.103399277 3.932261705 1.749551961e-38
8.308813095 4.757006645 4.408041477 1.951268875e-38
5.967902184 4.263264656 2.922303677 1.399820235e-38
7.61321497 4.805602551 3.842482328 1.786034767e-38
2.544062376 6.574044228 4.785467148 6.029745253e-39
3.013558149 6.294779301 5.178312778 7.129274093e-39
8.707409859 1.842806578 4.822892189 2.040451293e-38
4.892818451 6.100395203 5.420855522 1.153559265e-38
2.911174536 6.292381763 5.012004852 6.853403267e-39
5.295120239 6.157544136 5.161101341 1.245429794e-38
6.429815292 6.243786335 5.015081406 1.511823919e-38
6.397939205 5.092448711 3.454003572 1.50159444e-38
7.592405796 3.979165792 3.310210466 1.785243594e-38
2.907192707 6.22240448 4.940755844 6.853041732e-39
2.961515427 6.205103874 4.972370148 7.036355393e-39
3.090828896 6.180157661 4.997906685 7.311861882e-39
3.21942997 6.161172867 5.017372131 7.587011039e-39
3.348653316 6.146140575 5.03579092 7.862517528e-39
5.75595808 6.194282055 4.92939043 1.355667422e-38
6.572806358 6.194088459 4.916602135 1.548521824e-38
6.762695789 6.165060043 4.954708099 1.585220289e-38
5.545311928 3.975783348 2.308058262 1.298511961e-38
4.656696796 5.788603306 4.509994507 1.098167759e-38
3.622361183 6.08458519 4.948060036 8.504645733e-39
2.010064363 9.410173416 0.09627638757 4.769708884e-39
6.270325184 4.382817268 3.256453514 1.473397372e-38
2.722959042 6.129098892 4.732964993 6.392781047e-39
9.59489727 2.400475264 5.443640709 2.252177402e-38
5.346084118 6.065924644 4.78337574 1.254540196e-38
7.376540184 5.905751705 4.982084274 1.731941984e-38
4.96999979 5.351562977 3.76772666 1.171203014e-38
5.726469994 6.07953167 4.589156628 1.346374991e-38
6.236557961 0.1127686799 3.217215538 1.460303499e-38
5.145287037 0.1190406755 2.975148678 1.203163269e-38
6.429679871 0.201816082 3.172922134 1.506292854e-38
4.630691051 0.2278246731 2.756259918 1.083883903e-38
2.687820911 4.151856422 3.293263674 6.374792579e-39
2.426463604 4.239918709 3.44086051 5.732667176e-39
2.298209906 4.234586239 3.504760265 5.457162089e-39
1.736883044 0.05464122072 4.644032955 4.041285917e-39
6.300649643 0.3003168404 3.10000658 1.478849544e-38
6.10809803 0.3018655181 3.06768775 1.432931656e-38
5.143154144 0.3111830056 2.919361591 1.203342355e-38
4.821816444 0.3189713359 2.804555893 1.129873678e-38
1.079570174 5.78309536 4.578016281 2.624291508e-39
7.652457237 0.240070805 5.056797028 1.791025491e-38
5.336585045 0.4018826485 2.945440292 1.24933199e-38
5.013622284 0.4092562795 2.847332478 1.175863313e-38
2.606972218 7.879333973 4.90235424 6.133423123e-39
2.387471676 0.2817014456 4.282927513 5.604629134e-39
8.035908699 0.349742353 5.007785797 1.882968467e-38
6.75012064 0.4800897241 3.197592258 1.580012503e-38
2.86175251 8.170908928 4.677927017 6.778774315e-39
2.036493063 6.170502663 4.436002254 4.831925135e-39
2.385968924 0.3729905188 4.331421375 5.605706733e-39
2.259725332 0.3673859835 4.379983902 5.329844314e-39
1.54918766 0.3104055226 5.0583148 3.676470473e-39
6.878586292 0.5761091113 3.153871059 1.607670492e-38
6.492400169 0.5759275556 3.143984795 1.525018545e-38
4.436328888 0.6014114022 2.715530396 1.038288874e-38
7.183463097 4.359621048 3.268129826 1.68458314e-38
2.962388754 0.483109355 4.168718338 6.983951035e-39
2.385731459 0.4635670781 4.373333931 5.606427e-39
2.427356482 4.147703171 3.389722347 5.731946909e-39
5.325904369 9.68043232 2.744931936 1.257833247e-38
4.724044323 8.66808033 3.598186016 1.109966832e-38
6.813492775 0.6751283407 3.080747604 1.598558548e-38
5.721735954 0.6753356457 2.970201492 1.341418739e-38
3.118908882 8.173372269 4.440350056 7.42161438e-39
8.034907341 0.6552689075 4.702051163 1.883254332e-38
2.225447655 6.736873627 4.591022015 5.296489207e-39
4.821045876 0.7802513242 2.831098557 1.130304157e-38
4.628539562 0.7818193436 2.797918081 1.084386269e-38
4.371691227 0.7800567746 2.799094915 1.020101421e-38
4.243251324 0.7785276175 2.800039291 9.925507725e-39
2.898984432 0.6628949642 4.257843018 6.802077908e-39
8.355692863 0.7532706857 4.69310379 1.956794475e-38
7.794558525 0.7317005992 4.546702385 1.82822422e-38
5.394613743 9.271901131 2.703348637 1.275805601e-38
7.260624886 0.8533073664 3.244437695 1.699757521e-38
5.462561607 0.8854389787 2.674767494 1.27734801e-38
4.371640205 0.8664541245 2.883007288 1.020173588e-38
3.201208591 4.338160515 3.343183756 7.570449092e-39
4.84637022 9.340389252 3.183885813 1.147309334e-38
8.226488113 0.8528149724 4.631374359 1.929351166e-38
8.097123146 0.8539294004 4.605775356 1.892616827e-38
2.364549398 4.327138901 3.520248413 5.549716451e-39
7.39205122 0.9371385574 3.364514112 1.727380337e-38
7.258685112 0.9463783503 3.247081041 1.699829267e-38
6.36161232 0.9794950485 2.739495754 1.488641678e-38
4.819311619 0.9731646776 2.718372583 1.130483103e-38
3.440047741 8.273350716 4.197904587 8.157366139e-39
2.770364523 0.8388451338 4.434342861 6.528011954e-39
2.642316341 0.8314195871 4.51879406 6.160672772e-39
8.739927292 0.9427303672 4.699038029 2.048809338e-38
7.068446159 1.057734728 2.97838068 1.654018158e-38
5.397517204 1.080840468 2.549652815 1.268343406e-38
4.946537971 1.073039055 2.610693455 1.158105218e-38
3.762946367 8.276655197 4.032524109 8.892044503e-39
9.057804108 1.035548806 4.757202148 2.122349621e-38
6.420806885 1.166686893 2.706621885 1.507188003e-38
5.590453625 1.177475214 2.493161201 1.314332761e-38
5.268229485 1.175602555 2.494752169 1.231680814e-38
2.732515812 8.072357178 4.79858923 6.502554565e-39
7.521589279 1.230717063 3.127982616 1.764364807e-38
1.763350844 8.105401993 0.5671180487 4.206874554e-39
1.830608845 8.576330185 0.270275116 4.394840526e-39
6.103684902 1.35680747 2.586280346 1.433898552e-38
5.846399307 1.365593672 2.453235149 1.369613284e-38
8.412474632 1.323399425 4.581727505 1.975699253e-38
0.5263679624 5.133140087 7.199264526 1.241113234e-39
7.453342438 1.431159496 2.921773195 1.746176373e-38
5.653225899 1.460459471 2.389335632 1.323767003e-38
5.202685356 1.462967277 2.315856218 1.222747676e-38
3.60062027 1.323865771 4.236355782 8.461213889e-39
8.802991867 1.411597848 4.585890293 2.058422946e-38
7.259102345 1.530437946 2.807439566 1.700365825e-38
3.792721987 1.41555047 4.256890297 8.921110236e-39
8.994842529 1.502828717 4.632371902 2.10441258e-38
2.108375788 1.835219145 7.063252449 4.976229449e-39
2.035394907 6.359767914 4.447147846 4.833718797e-39
6.037434578 1.643420339 2.410450459 1.415781865e-38
5.909534454 1.644165397 2.375869513 1.388231216e-38
5.459580421 1.64781332 2.304486752 1.27802834e-38
3.571583271 8.179139137 4.151721954 8.432153761e-39
4.806581497 0.1774662435 9.486042023 1.12978988e-38
0.8852078915 5.873354912 4.706814289 2.166194428e-39
7.6439991 1.697290659 3.070298195 1.792345655e-38
5.844020367 1.741312265 2.306583166 1.369935583e-38
5.587134838 1.742549896 2.262464046 1.305650596e-38
5.330156326 1.746476293 2.203528166 1.250584891e-38
3.150244951 1.606694579 4.152691841 7.361696259e-39
7.580485344 1.791754961 3.025648594 1.774086035e-38
4.658648968 8.860390663 3.481731415 1.100962228e-38
3.791539907 1.698223591 4.172654629 8.923617158e-39
2.765971422 1.682413816 4.357261181 6.535901265e-39
7.512392521 1.885428548 2.99004817 1.764974092e-38
5.586354733 1.931251287 2.176164865 1.305829541e-38
5.522685051 1.930707216 2.173546314 1.296645992e-38
5.200521469 1.93664217 2.075024128 1.223177315e-38
3.91913867 1.79780674 4.067428589 9.200197042e-39
3.329154253 4.431542873 3.353103161 7.846674447e-39
2.163045168 6.547737598 4.538031101 5.111023151e-39
7.452083588 1.980605602 2.918218136 1.746714332e-38
6.679204941 2.004780293 2.510555267 1.563041938e-38
6.485724449 2.008208275 2.450575113 1.51712391e-38
5.907504559 2.020071983 2.238183498 1.388589388e-38
5.200194359 2.029486656 2.055392504 1.223284794e-38
3.598057985 1.890469551 4.072433472 8.466230537e-39
3.276963711 1.892400503 4.034629345 7.731545167e-39
2.557222605 4.791088581 3.596056461 6.013201523e-39
0.9530569315 5.684671879 4.679018497 2.256234861e-39
2.108099699 4.414825916 3.595501184 4.999782474e-39
1.088067412 2.717658043 7.56004858 2.596416879e-39
1.140405536 6.071043015 4.498823166 2.718994061e-39
6.293149471 2.106015444 2.34330225 1.471313501e-38
6.036211967 2.109676838 2.277570963 1.416211923e-38
3.854302168 1.988257766 3.972560883 9.018315507e-39
2.058439732 1.931147456 4.767448902 4.793194647e-39
6.677371979 2.187144995 2.525206566 1.563221304e-38
6.227739334 2.197116852 2.346227646 1.462201698e-38
5.521860123 2.204451799 2.171864033 1.296897104e-38
5.13531208 2.214676142 1.999713302 1.205061048e-38
3.211806059 2.082112789 3.924306393 7.549663632e-39
2.637749672 2.054963827 4.328905106 6.171786471e-39
3.314215183 7.98203373 4.389427662 7.87935553e-39
3.250843048 7.885877609 4.4750247 7.694611143e-39
7.512373447 2.258387089 2.891153336 1.765332544e-38
6.548052311 2.282315493 2.462922573 1.535742262e-38
5.649162292 2.298391342 2.144393206 1.324555373e-38
5.070539474 2.307566166 1.966574192 1.186801428e-38
4.427921772 2.284803629 2.276037931 1.039829882e-38
3.184920549 7.980413437 4.451123714 7.512016348e-39
2.954829216 2.167778254 3.996907473 6.907535427e-39
1.800499678 2.116518974 4.721715927 4.243972529e-39
7.511364937 2.349935293 2.892222166 1.76540429e-38
6.290631771 2.380823135 2.337824583 1.471564614e-38
5.263399124 2.398272038 1.975126266 1.232790923e-38
2.184535503 2.247060537 4.189965725 5.163385471e-39
1.800171852 2.218486071 4.590353012 4.245044522e-39
1.265274525 6.925167084 4.590694904 3.002395465e-39
1.72083962 5.046120644 4.162975311 4.087186849e-39
3.120829105 8.076375008 4.442672253 7.420896915e-39
7.573991776 2.438529015 2.947031498 1.774659727e-38
6.740704536 2.466274261 2.449100256 1.581839236e-38
5.263456821 2.491122723 1.953083277 1.232898542e-38
4.940937042 2.491835833 1.923971772 1.159430005e-38
2.019531488 2.461952686 8.239154816 4.706504718e-39
1.304099321 5.075083733 8.969954491 3.077168751e-39
2.495616436 0.1856301576 8.976427078 5.879586313e-39
1.111708879 2.881938934 7.823147297 2.597860217e-39
7.577608109 2.529552937 2.948987246 1.774767346e-38
6.611443043 2.56244278 2.365320206 1.554360054e-38
3.530465603 2.464407921 3.723151684 8.287927919e-39
2.118510723 2.446362972 3.914627552 4.981498332e-39
1.609932899 2.411613464 4.521183491 3.787299169e-39
1.907244205 1.905482531 7.077066898 4.517769433e-39
7.831366539 2.609541893 3.154533863 1.839124641e-38
7.447067261 2.62528038 2.878714561 1.747288164e-38
6.611783981 2.655234814 2.342233181 1.554467673e-38
3.14530611 2.555016994 3.711898327 7.370290422e-39
3.081516027 2.551673651 3.76540637 7.278456328e-39
2.117855549 2.544300079 3.819892406 4.982570325e-39
1.416027069 2.502902508 4.510760784 3.329197885e-39
5.968518257 2.756074905 2.141484499 1.398418376e-38
0.6269208193 6.05847311 4.850375175 1.52478649e-39
7.060835361 2.820428848 2.656925678 1.655631333e-38
5.003988266 2.85712862 1.920035362 1.178119964e-38
4.939569473 2.857414246 1.911806464 1.159752865e-38
4.23488903 2.835539341 2.224551916 9.944142192e-39
2.822625637 2.743245602 3.640888214 6.637397313e-39
2.565892935 2.74675107 3.592849255 5.994547438e-39
1.95306325 9.130648613 0.05130369216 4.67536086e-39
0.427292347 5.23713541 7.361993313 1.058524044e-39
5.903385162 2.940940857 2.100257397 1.389414052e-38
5.389064789 2.945794106 1.985559464 1.260843937e-38
3.593272924 2.84048295 3.582863808 8.474821898e-39
1.923242688 2.827427149 3.68154335 4.525899767e-39
1.542906523 2.812498093 3.963726759 3.607554615e-39
8.087007523 2.959394455 3.448517561 1.894514045e-38
7.059370995 3.004491329 2.637012482 1.655810559e-38
4.874289513 3.03986907 1.900428653 1.141564991e-38
4.61837244 3.037309885 1.928355455 1.086427961e-38
3.656902075 2.936573267 3.519403458 8.56773219e-39
1.414472938 2.899595261 4.026275635 3.332768394e-39
1.285082221 2.883208752 4.266768456 3.057270313e-39
5.645418167 3.128048182 2.001271009 1.325308151e-38
5.580816746 3.12887764 1.985252857 1.306941051e-38
1.094457626 2.964927912 4.449287415 2.598815902e-39
5.039492607 9.340778351 2.995335579 1.193226382e-38
4.531139851 8.764169693 3.578911066 1.07330424e-38
7.572919846 3.167702675 3.004293442 1.775341598e-38
5.516301155 3.219836712 1.983935237 1.297829248e-38
5.066287994 3.225169182 1.865325689 1.187626232e-38
2.435609818 3.123325109 3.385156393 5.722619866e-39
2.370316982 3.120506048 3.413199186 5.538950275e-39
2.235865116 4.510462761 3.580667973 5.276005026e-39
4.034823418 4.713140488 3.373372555 9.502224505e-39
1.007918835 6.825771332 4.734275818 2.450311896e-39
4.977270126 8.956675529 3.268196106 1.174501531e-38
2.884572029 3.219551086 3.35602808 6.825363285e-39
2.756266594 3.218961954 3.340523481 6.458019899e-39
8.281023026 3.318972349 3.600489855 1.940791086e-38
6.416536331 3.38463521 2.356726646 1.509195643e-38
0.75573349 5.966334343 4.76096344 1.79957131e-39
1.984681845 3.295691967 3.54029417 4.713869943e-39
2.093982458 6.925944805 4.584210396 4.930940884e-39
2.513002396 0.1416540295 8.886083603 5.879224778e-39
0.7457658052 6.819422245 5.119027615 1.807477436e-39
3.788842678 3.419352055 3.162190676 8.939366352e-39
3.076538801 3.404164553 3.325292587 7.19449753e-39
2.433701992 3.400024176 3.360511303 5.725130993e-39
1.919324994 3.387045622 3.548407316 4.530916416e-39
1.27276969 5.69225359 4.487224102 2.990911824e-39
3.204638481 3.499866009 3.309448004 7.562555578e-39
3.076005459 3.499166727 3.305420637 7.195213594e-39
3.808270931 0.04777953774 2.618930578 8.908495747e-39
4.003737926 0.04535633698 2.671344757 9.367674629e-39
3.630382776 0.04408619925 2.734051228 8.541157966e-39
5.60262394 0.05749866739 3.216693401 1.313294959e-38
7.027752399 0.1131510288 3.664091587 1.643976033e-38
3.300477266 0.08331295103 2.913726568 7.715002838e-39
4.390496731 0.04100209475 3.241073132 1.028605061e-38
4.82394886 0.07770813257 3.462829113 1.129660681e-38
5.81969738 0.1035031006 3.685802937 1.359286135e-38
3.44913578 0.03934986144 3.312986135 8.082000103e-39
3.714204788 0.04523950815 3.37377882 8.724851379e-39
4.948111057 0.1479132324 3.56652236 1.157283496e-38
6.944141865 0.08685085177 4.147736073 1.625574882e-38
7.087887764 0.1092696488 4.155343533 1.662344954e-38
4.545385361 0.2115286887 3.543476582 1.065483733e-38
5.27634716 0.231926173 3.706337929 1.24000775e-38
5.410208225 0.2374595553 3.733957767 1.267558399e-38
5.474096298 0.2350168079 3.753149986 1.285925638e-38
6.00983429 0.2573581338 3.863580465 1.405348077e-38
6.724679947 0.1277102828 4.199271679 1.570509598e-38
3.954379797 0.1694379747 3.596744299 9.276948961e-39
4.404793739 0.2758373916 3.586601257 1.028821421e-38
5.409083843 0.3179800212 3.794078827 1.267630426e-38
6.588597298 0.2835221887 4.292051315 1.543102722e-38
6.876273632 0.08979253471 4.594309807 1.607209324e-38
4.694480896 0.371519804 3.857572317 1.102362546e-38
6.336884975 0.3845888078 4.263950825 1.488109044e-38
4.915709019 0.3789842129 4.06016922 1.148317008e-38
5.180476189 0.385165453 4.121060848 1.212601995e-38
5.311665535 0.3856127262 4.154531479 1.240152784e-38
3.465487719 0.07735185325 4.194274902 8.082391066e-39
7.871193886 0.2417295575 5.136007786 1.846127069e-38
5.814777374 0.3930575848 4.585178375 1.359540471e-38
6.210880756 0.3998285234 4.679364204 1.451376247e-38
6.686495781 0.0691164881 5.189167976 1.570477228e-38
7.492507935 0.1090948954 5.350944996 1.754184654e-38
2.57209754 0.03813161701 4.313802719 6.061655622e-39
6.100193024 0.3982477188 4.807264805 1.433009708e-38
3.533715725 0.2064746916 4.519129753 8.267149466e-39
4.594923019 0.3563320041 4.620248318 1.0748147e-38
5.121767044 0.3638480604 4.74830389 1.203384815e-38
5.191690445 0.3720641136 4.756719112 1.212568364e-38
5.654563904 0.3819582462 4.865373611 1.322807253e-38
2.543002605 0.02540587261 4.624573231 5.969831336e-39
4.612451077 0.3494507372 4.785892963 1.08399881e-38
5.209211349 0.3653255403 4.922596931 1.221752614e-38
6.144744873 0.2819022834 5.262751579 1.44208718e-38
8.097265244 0.1451660991 5.929812908 1.891975873e-38
1.144259095 2.38786602 6.91989851 2.685358694e-39
4.696844578 0.3454335034 4.96598196 1.10236661e-38
5.95713377 0.3803318441 5.253524303 1.396277051e-38
6.012708664 0.3620207906 5.289123058 1.405424868e-38
1.109666586 2.331481934 6.533582687 2.592793121e-39
2.4587183 0.03050524555 4.899244785 5.786170153e-39
4.850936413 0.349606216 5.15439558 1.139101369e-38
6.105579853 0.1301984191 5.735860348 1.432761819e-38
6.272334099 0.07541454583 5.84307909 1.469460564e-38
7.724686623 0.1036455184 6.189546585 1.809289035e-38
8.910095215 0.4874440432 6.04692173 2.085117822e-38
2.217637777 0.02670183592 4.990481853 5.235159978e-39
3.597370386 0.04137140512 5.334017754 8.449414956e-39
4.347516537 0.3446688056 5.179204464 1.019715364e-38
6.064830303 0.1356087029 5.869952202 1.42357883e-38
7.818084717 0.1149910614 6.351943493 1.827656694e-38
1.9152143 0.03046638332 5.056602478 4.500478812e-39
2.636978865 0.0366736874 5.238070965 6.153524749e-39
3.356032848 0.03755496442 5.425248146 7.898404781e-39
6.032925606 0.156744808 5.987753868 1.414431574e-38
8.462077141 0.3014312983 6.455860615 1.983956824e-38
4.38903904 0.3397963047 5.496394157 1.028900034e-38
4.784789562 0.3470533788 5.591640472 1.120735951e-38
7.87899065 0.1475504339 6.632022381 1.846060648e-38
8.7517519 0.4358608723 6.527798653 2.048349432e-38
5.064785004 0.3406387269 5.82272625 1.185021499e-38
5.530290604 0.3561958671 5.926919937 1.295224515e-38
6.561224937 0.08541222662 6.509252548 1.533747794e-38
7.492630005 0.116585128 6.717483997 1.754189559e-38
2.504537344 0.03056365997 5.65892458 5.878032273e-39
2.702618122 0.03421162069 5.70670414 6.337212557e-39
3.271992445 0.1221315414 5.754945755 7.623628369e-39
4.561596394 0.3355005085 5.847053051 1.065635494e-38
5.350374699 0.3448372781 6.042976856 1.249307187e-38
5.953987122 0.2521679997 6.308056831 1.396137342e-38
8.926055908 0.5577073097 6.733958721 2.09437564e-38
2.074065924 0.0381446518 5.685825348 4.867843217e-39
2.140598059 0.04020506516 5.701195717 5.051514209e-39
4.381595135 0.3240318596 5.963216305 1.028865843e-38
4.713402271 0.3337056041 6.039073944 1.102370393e-38
6.287985325 0.1028680354 6.71846199 1.46949952e-38
8.713183403 0.4876513779 6.912556171 2.039203156e-38
1.475198507 0.09712080657 5.608131409 3.490666704e-39
5.065710068 0.3408588767 6.273226738 1.18502318e-38
5.199538231 0.3468330204 6.301468849 1.221757519e-38
5.330458164 0.3475262523 6.335072041 1.249308308e-38
6.504059315 0.09872114658 6.930141449 1.524601659e-38
6.765971184 0.1000236273 6.997181892 1.588886646e-38
7.030751705 0.1066910028 7.059101105 1.643988224e-38
7.164374352 0.1126844436 7.087441444 1.680722563e-38
1.675495625 0.06270834804 5.848717213 3.949852593e-39
1.863961458 0.04896519333 5.914480686 4.408674144e-39
2.315191269 0.0386370644 6.045993805 5.418868806e-39
6.299703121 0.1641184688 6.951264381 1.478719784e-38
8.567987442 0.5003575683 7.161484718 2.002505812e-38
2.467857838 0.03734110296 6.235671043 5.786217797e-39
2.603028774 0.04664554447 6.261360168 6.061725687e-39
4.845561028 0.3344637752 6.5224123 1.139106273e-38
6.287525177 0.222543776 7.030868053 1.469608261e-38
6.568082809 0.136366874 7.203714848 1.533786189e-38
1.793338537 2.365900517 7.9920578 4.246242633e-39
3.877635479 0.06899338216 6.721710682 9.092671206e-39
4.179057121 0.1449910998 6.713962555 9.828072641e-39
5.131079674 0.338629961 6.742941856 1.203391961e-38
6.61171484 0.1763841361 7.319042683 1.552189582e-38
6.906344891 0.1168313324 7.465097904 1.616438977e-38
7.238190174 0.1265762895 7.541229248 1.699091204e-38
1.395545244 5.170007706 9.195646286 3.353758443e-39
4.558384895 0.324932456 6.757269382 1.065602844e-38
6.324593544 0.3316709995 7.215257645 1.478864258e-38
2.605469465 2.022151709 7.867217064 6.080078493e-39
0.5010946989 5.076055527 8.143152237 1.240429401e-39
4.375808239 0.3079951108 6.877942562 1.028869066e-38
4.515282631 0.3246408701 6.895344734 1.056419855e-38
5.047392845 0.3434312344 7.014526367 1.185025843e-38
7.558352947 0.2727467716 7.756297588 1.772703934e-38
7.75425005 0.4051613212 7.659623146 1.818728882e-38
7.938098431 0.5079255104 7.589980125 1.85557056e-38
8.718026161 0.7462924719 7.523180008 2.039456511e-38
2.146275759 2.455589294 8.282817841 5.073848104e-39
1.936216354 2.229701996 7.891356468 4.52066872e-39
4.145055294 0.2004423887 7.089199066 9.73660989e-39
8.344819069 0.7337998748 7.587975502 1.956804705e-38
0.3727448285 5.21633625 7.066493034 9.663186054e-40
1.386412263 2.538073301 7.836762428 3.237840232e-39
2.230181217 1.788592935 5.041826248 5.251305739e-39
4.659060001 0.3463859856 7.356233597 1.093191608e-38
6.124515533 0.4022842944 7.680539608 1.433019938e-38
6.81573391 0.1056023762 8.201881409 1.59807454e-38
1.696484685 2.036665916 7.167268753 3.967836858e-39
0.3723270893 5.24238348 8.674404144 8.748992949e-40
2.013712168 1.835342169 5.084978104 4.700652896e-39
3.628340244 0.08041664958 7.530249596 8.541687657e-39
3.907044888 0.1152179539 7.56742382 9.184896264e-39
4.007610798 0.1834920198 7.518606186 9.369283319e-39
2.613690376 2.236486197 8.215803146 6.173720262e-39
1.848046303 2.15255785 7.659151077 4.336271855e-39
1.259886026 2.872342587 8.019529343 2.965209208e-39
0.8563571572 4.963961124 7.617791176 2.066211783e-39
2.475314379 0.0736650303 7.371332645 5.786617167e-39
3.65353632 0.08450512588 7.679345608 8.541693262e-39
4.166069984 0.3167940974 7.557181358 9.737702903e-39
5.308556557 0.3789969981 7.789213181 1.240165816e-38
6.244418144 0.4214439988 7.988900661 1.460607581e-38
2.838977814 2.052061081 8.044148445 6.631097075e-39
1.481473923 2.356654406 7.627486706 3.511546052e-39
0.8225163817 4.985602379 8.1821661 1.974397306e-39
2.110514402 0.07870599627 7.411929131 4.960099103e-39
2.569605112 0.08474481106 7.530158043 6.062129261e-39
2.901232243 0.09631724656 7.607532024 6.796816032e-39
5.335120678 0.3870057464 7.936063766 1.249349786e-38
2.407850981 2.298002005 8.235044479 5.62342475e-39
1.702034235 2.883118153 8.421183586 3.975773812e-39
0.465423584 5.25391674 8.836958885 1.150411389e-39
5.498137951 0.406411618 8.106582642 1.286084685e-38
5.629060745 0.4071309566 8.140184402 1.322819024e-38
6.189527512 0.109567754 8.627641678 1.451139288e-38
7.196121693 0.2859714329 8.6947155 1.690055351e-38
1.349661946 4.886466026 8.277233124 3.167544094e-39
2.588693142 2.069970369 7.955579281 6.080440028e-39
4.327233791 0.3702627122 7.984840393 1.010541903e-38
6.350045204 0.1237318739 8.803156853 1.487874047e-38
1.23076582 2.614200354 7.710835934 2.871211508e-39
1.090610743 2.523921728 7.192693233 2.594609204e-39
1.620203137 1.873175979 5.704670429 3.782677686e-39
1.668790579 1.837441802 5.748742104 3.965992749e-39
6.471679688 0.1883063316 8.910877228 1.515496862e-38
2.664634943 2.615425348 8.54437542 6.269154293e-39
2.350509644 1.607057452 6.352067947 5.525064809e-39
2.474582195 0.09652459621 8.070501328 5.78664239e-39
3.975960016 0.1055374444 8.473705292 9.27676399e-39
4.583837986 0.4005673528 8.315584183 1.074863745e-38
5.946584702 0.1396713555 8.974901199 1.396075124e-38
0.796022892 2.873288631 7.020807266 1.863148221e-39
0.5874602795 5.079943657 7.868741989 1.424449316e-39
2.168157578 0.08763484657 8.13995266 5.051961224e-39
2.301061392 0.09248149395 8.171260834 5.419303208e-39
3.871161699 0.1094188243 8.585395813 9.093097201e-39
4.531608582 0.1284423918 8.746641159 1.065430624e-38
0.5732150674 5.14234066 7.501353264 1.424794036e-39
1.534486413 2.217229366 7.36019516 3.602295541e-39
1.944456577 2.60419631 8.354839325 4.615749623e-39
1.201118827 2.407116652 7.205620289 2.869040897e-39
2.368570089 1.879169345 7.374796391 5.527612369e-39
1.994958162 2.217449665 7.920749664 4.704341114e-39
2.652675867 0.09742517769 8.406980515 6.245831081e-39
3.76647234 0.113189891 8.69754982 8.817594917e-39
1.903775811 2.40881443 8.120287895 4.522112057e-39
2.086108208 2.106767178 7.777702332 4.886930303e-39
1.470073581 2.692433357 8.126238823 3.422955963e-39
1.733498573 1.794547439 6.419754505 4.057493335e-39
1.966043234 1.740282059 6.545698166 4.607793051e-39
1.859298825 0.1554877162 8.268440247 4.317998923e-39
2.221889734 0.09866273403 8.429768562 5.236000757e-39
2.351781368 0.09843607247 8.465982437 5.511508647e-39
3.006820679 0.1076434851 8.637619019 7.072717687e-39
4.767821312 0.117304191 9.114634514 1.120533183e-38
2.388557434 1.945869207 7.601142883 5.620173738e-39
1.218781233 4.827114582 8.163603783 2.891315937e-39
0.7388936877 5.038604259 7.806946754 1.791071033e-39
1.083860159 2.374913692 5.74210453 2.593481159e-39
1.129564047 2.332719326 5.805000305 2.684601993e-39
1.554422259 1.905599236 6.397016048 3.691226146e-39
1.604974985 1.878968596 6.438019276 3.782704311e-39
2.237323284 1.716748595 6.791759014 5.250649932e-39
0.92901057 2.869543552 7.497300625 2.230507021e-39
2.098568439 2.327263594 8.118887901 4.980572073e-39
1.047591925 2.386829138 5.869117737 2.501651268e-39
1.397009611 2.053985357 6.33874321 3.324958957e-39
1.912979126 1.79982841 6.757211685 4.516682026e-39
1.931290507 0.1909368932 8.527876854 4.502037056e-39
3.082466602 7.451299667 4.862369061 7.323337115e-39
4.757333279 8.152378082 4.275196075 1.118686412e-38
