# .PCD v0.7 - Point Cloud Data file format
VERSION 0.7
FIELDS x y z rgb
SIZE 4 4 4 4
TYPE F F F F
COUNT 1 1 1 1
WIDTH 480
HEIGHT 1
VIEWPOINT 0 0 0 1 0 0 0
POINTS 480
DATA ascii
-3 5 2 0
-3 5 3 3.9236357e-44
-3 5 4 7.987401247e-44
-3 5 5 1.191103695e-43
-3 5 6 1.583467265e-43
-3 5 7 1.989843819e-43
-3 5 8 2.382207389e-43
-3 5 9 2.774570959e-43
-3 5 10 3.180947514e-43
-3 5 11 3.573311084e-43
-3 6 2 1.291436665e-41
-3 6 3 1.2953603e-41
-3 6 4 1.299424066e-41
-3 6 5 1.303347702e-41
-3 6 6 1.307271337e-41
-3 6 7 1.311335103e-41
-3 6 8 1.315258739e-41
-3 6 9 1.319182374e-41
-3 6 10 1.32324614e-41
-3 6 11 1.327169776e-41
-3 7 2 2.61874657e-41
-3 7 3 2.622670206e-41
-3 7 4 2.626733971e-41
-3 7 5 2.630657607e-41
-3 7 6 2.634581243e-41
-3 7 7 2.638645008e-41
-3 7 8 2.642568644e-41
-3 7 9 2.64649228e-41
-3 7 10 2.650556045e-41
-3 7 11 2.654479681e-41
-3 8 2 3.910183235e-41
-3 8 3 3.914106871e-41
-3 8 4 3.918170636e-41
-3 8 5 3.922094272e-41
-3 8 6 3.926017907e-41
-3 8 7 3.930081673e-41
-3 8 8 3.934005309e-41
-3 8 9 3.937928944e-41
-3 8 10 3.94199271e-41
-3 8 11 3.945916346e-41
-3 9 2 5.23749314e-41
-3 9 3 5.241416776e-41
-3 9 4 5.245480542e-41
-3 9 5 5.249404177e-41
-3 9 6 5.253327813e-41
-3 9 7 5.257391578e-41
-3 9 8 5.261315214e-41
-3 9 9 5.26523885e-41
-3 9 10 5.269302615e-41
-3 9 11 5.273226251e-41
-3 10 2 6.528929805e-41
-3 10 3 6.532853441e-41
-3 10 4 6.536917206e-41
-3 10 5 6.540840842e-41
-3 10 6 6.544764478e-41
-3 10 7 6.548828243e-41
-3 10 8 6.552751879e-41
-3 10 9 6.556675515e-41
-3 10 10 6.56073928e-41
-3 10 11 6.564662916e-41
-3 11 2 7.85623971e-41
-3 11 3 7.860163346e-41
-3 11 4 7.864227112e-41
-3 11 5 7.868150747e-41
-3 11 6 7.872074383e-41
-3 11 7 7.876138149e-41
-3 11 8 7.880061784e-41
-3 11 9 7.88398542e-41
-3 11 10 7.888049186e-41
-3 11 11 7.891972821e-41
-3 12 2 9.147676375e-41
-3 12 3 9.151600011e-41
-3 12 4 9.155663776e-41
-3 12 5 9.159587412e-41
-3 12 6 9.163511048e-41
-3 12 7 9.167574813e-41
-3 12 8 9.171498449e-41
-3 12 9 9.175422085e-41
-3 12 10 9.17948585e-41
-3 12 11 9.183409486e-41
-2 5 2 4.683610304e-39
-2 5 3 4.68364954e-39
-2 5 4 4.683690178e-39
-2 5 5 4.683729414e-39
-2 5 6 4.683768651e-39
-2 5 7 4.683809288e-39
-2 5 8 4.683848525e-39
-2 5 9 4.683887761e-39
-2 5 10 4.683928399e-39
-2 5 11 4.683967635e-39
-2 6 2 4.696524671e-39
-2 6 3 4.696563907e-39
-2 6 4 4.696604545e-39
-2 6 5 4.696643781e-39
-2 6 6 4.696683017e-39
-2 6 7 4.696723655e-39
-2 6 8 4.696762891e-39
-2 6 9 4.696802128e-39
-2 6 10 4.696842765e-39
-2 6 11 4.696882002e-39
-2 7 2 4.70979777e-39
-2 7 3 4.709837006e-39
-2 7 4 4.709877644e-39
-2 7 5 4.70991688e-39
-2 7 6 4.709956116e-39
-2 7 7 4.709996754e-39
-2 7 8 4.71003599e-39
-2 7 9 4.710075227e-39
-2 7 10 4.710115865e-39
-2 7 11 4.710155101e-39
-2 8 2 4.722712136e-39
-2 8 3 4.722751373e-39
-2 8 4 4.72279201e-39
-2 8 5 4.722831247e-39
-2 8 6 4.722870483e-39
-2 8 7 4.722911121e-39
-2 8 8 4.722950357e-39
-2 8 9 4.722989594e-39
-2 8 10 4.723030231e-39
-2 8 11 4.723069468e-39
-2 9 2 4.735985235e-39
-2 9 3 4.736024472e-39
-2 9 4 4.736065109e-39
-2 9 5 4.736104346e-39
-2 9 6 4.736143582e-39
-2 9 7 4.73618422e-39
-2 9 8 4.736223456e-39
-2 9 9 4.736262693e-39
-2 9 10 4.73630333e-39
-2 9 11 4.736342567e-39
-2 10 2 4.748899602e-39
-2 10 3 4.748938838e-39
-2 10 4 4.748979476e-39
-2 10 5 4.749018712e-39
-2 10 6 4.749057949e-39
-2 10 7 4.749098586e-39
-2 10 8 4.749137823e-39
-2 10 9 4.749177059e-39
-2 10 10 4.749217697e-39
-2 10 11 4.749256933e-39
-2 11 2 4.762172701e-39
-2 11 3 4.762211938e-39
-2 11 4 4.762252575e-39
-2 11 5 4.762291812e-39
-2 11 6 4.762331048e-39
-2 11 7 4.762371686e-39
-2 11 8 4.762410922e-39
-2 11 9 4.762450158e-39
-2 11 10 4.762490796e-39
-2 11 11 4.762530032e-39
-2 12 2 4.775087068e-39
-2 12 3 4.775126304e-39
-2 12 4 4.775166942e-39
-2 12 5 4.775206178e-39
-2 12 6 4.775245415e-39
-2 12 7 4.775286052e-39
-2 12 8 4.775325289e-39
-2 12 9 4.775364525e-39
-2 12 10 4.775405163e-39
-2 12 11 4.775444399e-39
-1 5 2 9.367220608e-39
-1 5 3 9.367259844e-39
-1 5 4 9.367300482e-39
-1 5 5 9.367339718e-39
-1 5 6 9.367378955e-39
-1 5 7 9.367419592e-39
-1 5 8 9.367458829e-39
-1 5 9 9.367498065e-39
-1 5 10 9.367538703e-39
-1 5 11 9.367577939e-39
-1 6 2 9.380134975e-39
-1 6 3 9.380174211e-39
-1 6 4 9.380214849e-39
-1 6 5 9.380254085e-39
-1 6 6 9.380293321e-39
-1 6 7 9.380333959e-39
-1 6 8 9.380373196e-39
-1 6 9 9.380412432e-39
-1 6 10 9.38045307e-39
-1 6 11 9.380492306e-39
-1 7 2 9.393408074e-39
-1 7 3 9.39344731e-39
-1 7 4 9.393487948e-39
-1 7 5 9.393527184e-39
-1 7 6 9.393566421e-39
-1 7 7 9.393607058e-39
-1 7 8 9.393646295e-39
-1 7 9 9.393685531e-39
-1 7 10 9.393726169e-39
-1 7 11 9.393765405e-39
-1 8 2 9.40632244e-39
-1 8 3 9.406361677e-39
-1 8 4 9.406402314e-39
-1 8 5 9.406441551e-39
-1 8 6 9.406480787e-39
-1 8 7 9.406521425e-39
-1 8 8 9.406560661e-39
-1 8 9 9.406599898e-39
-1 8 10 9.406640535e-39
-1 8 11 9.406679772e-39
-1 9 2 9.41959554e-39
-1 9 3 9.419634776e-39
-1 9 4 9.419675414e-39
-1 9 5 9.41971465e-39
-1 9 6 9.419753886e-39
-1 9 7 9.419794524e-39
-1 9 8 9.41983376e-39
-1 9 9 9.419872997e-39
-1 9 10 9.419913634e-39
-1 9 11 9.419952871e-39
-1 10 2 9.432509906e-39
-1 10 3 9.432549143e-39
-1 10 4 9.43258978e-39
-1 10 5 9.432629017e-39
-1 10 6 9.432668253e-39
-1 10 7 9.432708891e-39
-1 10 8 9.432748127e-39
-1 10 9 9.432787363e-39
-1 10 10 9.432828001e-39
-1 10 11 9.432867237e-39
-1 11 2 9.445783005e-39
-1 11 3 9.445822242e-39
-1 11 4 9.445862879e-39
-1 11 5 9.445902116e-39
-1 11 6 9.445941352e-39
-1 11 7 9.44598199e-39
-1 11 8 9.446021226e-39
-1 11 9 9.446060462e-39
-1 11 10 9.4461011e-39
-1 11 11 9.446140336e-39
-1 12 2 9.458697372e-39
-1 12 3 9.458736608e-39
-1 12 4 9.458777246e-39
-1 12 5 9.458816482e-39
-1 12 6 9.458855719e-39
-1 12 7 9.458896356e-39
-1 12 8 9.458935593e-39
-1 12 9 9.458974829e-39
-1 12 10 9.459015467e-39
-1 12 11 9.459054703e-39
0 5 2 1.405083091e-38
0 5 3 1.405087015e-38
0 5 4 1.405091079e-38
0 5 5 1.405095002e-38
0 5 6 1.405098926e-38
0 5 7 1.40510299e-38
0 5 8 1.405106913e-38
0 5 9 1.405110837e-38
0 5 10 1.405114901e-38
0 5 11 1.405118824e-38
0 6 2 1.406374528e-38
0 6 3 1.406378452e-38
0 6 4 1.406382515e-38
0 6 5 1.406386439e-38
0 6 6 1.406390363e-38
0 6 7 1.406394426e-38
0 6 8 1.40639835e-38
0 6 9 1.406402274e-38
0 6 10 1.406406337e-38
0 6 11 1.406410261e-38
0 7 2 1.407701838e-38
0 7 3 1.407705761e-38
0 7 4 1.407709825e-38
0 7 5 1.407713749e-38
0 7 6 1.407717672e-38
0 7 7 1.407721736e-38
0 7 8 1.40772566e-38
0 7 9 1.407729583e-38
0 7 10 1.407733647e-38
0 7 11 1.407737571e-38
0 8 2 1.408993274e-38
0 8 3 1.408997198e-38
0 8 4 1.409001262e-38
0 8 5 1.409005185e-38
0 8 6 1.409009109e-38
0 8 7 1.409013173e-38
0 8 8 1.409017097e-38
0 8 9 1.40902102e-38
0 8 10 1.409025084e-38
0 8 11 1.409029008e-38
0 9 2 1.410320584e-38
0 9 3 1.410324508e-38
0 9 4 1.410328572e-38
0 9 5 1.410332495e-38
0 9 6 1.410336419e-38
0 9 7 1.410340483e-38
0 9 8 1.410344406e-38
0 9 9 1.41034833e-38
0 9 10 1.410352394e-38
0 9 11 1.410356317e-38
0 10 2 1.411612021e-38
0 10 3 1.411615945e-38
0 10 4 1.411620008e-38
0 10 5 1.411623932e-38
0 10 6 1.411627856e-38
0 10 7 1.411631919e-38
0 10 8 1.411635843e-38
0 10 9 1.411639767e-38
0 10 10 1.41164383e-38
0 10 11 1.411647754e-38
0 11 2 1.412939331e-38
0 11 3 1.412943255e-38
0 11 4 1.412947318e-38
0 11 5 1.412951242e-38
0 11 6 1.412955166e-38
0 11 7 1.412959229e-38
0 11 8 1.412963153e-38
0 11 9 1.412967077e-38
0 11 10 1.41297114e-38
0 11 11 1.412975064e-38
0 12 2 1.414230768e-38
0 12 3 1.414234691e-38
0 12 4 1.414238755e-38
0 12 5 1.414242679e-38
0 12 6 1.414246602e-38
0 12 7 1.414250666e-38
0 12 8 1.41425459e-38
0 12 9 1.414258513e-38
0 12 10 1.414262577e-38
0 12 11 1.414266501e-38
1 5 2 1.873444122e-38
1 5 3 1.873448045e-38
1 5 4 1.873452109e-38
1 5 5 1.873456033e-38
1 5 6 1.873459956e-38
1 5 7 1.87346402e-38
1 5 8 1.873467944e-38
1 5 9 1.873471867e-38
1 5 10 1.873475931e-38
1 5 11 1.873479855e-38
1 6 2 1.874735558e-38
1 6 3 1.874739482e-38
1 6 4 1.874743546e-38
1 6 5 1.874747469e-38
1 6 6 1.874751393e-38
1 6 7 1.874755457e-38
1 6 8 1.87475938e-38
1 6 9 1.874763304e-38
1 6 10 1.874767368e-38
1 6 11 1.874771291e-38
1 7 2 1.876062868e-38
1 7 3 1.876066792e-38
1 7 4 1.876070856e-38
1 7 5 1.876074779e-38
1 7 6 1.876078703e-38
1 7 7 1.876082767e-38
1 7 8 1.87608669e-38
1 7 9 1.876090614e-38
1 7 10 1.876094678e-38
1 7 11 1.876098601e-38
1 8 2 1.877354305e-38
1 8 3 1.877358228e-38
1 8 4 1.877362292e-38
1 8 5 1.877366216e-38
1 8 6 1.87737014e-38
1 8 7 1.877374203e-38
1 8 8 1.877378127e-38
1 8 9 1.877382051e-38
1 8 10 1.877386114e-38
1 8 11 1.877390038e-38
1 9 2 1.878681615e-38
1 9 3 1.878685538e-38
1 9 4 1.878689602e-38
1 9 5 1.878693526e-38
1 9 6 1.878697449e-38
1 9 7 1.878701513e-38
1 9 8 1.878705437e-38
1 9 9 1.87870936e-38
1 9 10 1.878713424e-38
1 9 11 1.878717348e-38
1 10 2 1.879973051e-38
1 10 3 1.879976975e-38
1 10 4 1.879981039e-38
1 10 5 1.879984962e-38
1 10 6 1.879988886e-38
1 10 7 1.87999295e-38
1 10 8 1.879996874e-38
1 10 9 1.880000797e-38
1 10 10 1.880004861e-38
1 10 11 1.880008785e-38
1 11 2 1.881300361e-38
1 11 3 1.881304285e-38
1 11 4 1.881308349e-38
1 11 5 1.881312272e-38
1 11 6 1.881316196e-38
1 11 7 1.88132026e-38
1 11 8 1.881324183e-38
1 11 9 1.881328107e-38
1 11 10 1.881332171e-38
1 11 11 1.881336094e-38
1 12 2 1.882591798e-38
1 12 3 1.882595722e-38
1 12 4 1.882599785e-38
1 12 5 1.882603709e-38
1 12 6 1.882607633e-38
1 12 7 1.882611696e-38
1 12 8 1.88261562e-38
1 12 9 1.882619544e-38
1 12 10 1.882623607e-38
1 12 11 1.882627531e-38
2 5 2 2.341805152e-38
2 5 3 2.341809076e-38
2 5 4 2.341813139e-38
2 5 5 2.341817063e-38
2 5 6 2.341820987e-38
2 5 7 2.34182505e-38
2 5 8 2.341828974e-38
2 5 9 2.341832898e-38
2 5 10 2.341836962e-38
2 5 11 2.341840885e-38
2 6 2 2.343096589e-38
2 6 3 2.343100512e-38
2 6 4 2.343104576e-38
2 6 5 2.3431085e-38
2 6 6 2.343112423e-38
2 6 7 2.343116487e-38
2 6 8 2.343120411e-38
2 6 9 2.343124334e-38
2 6 10 2.343128398e-38
2 6 11 2.343132322e-38
2 7 2 2.344423899e-38
2 7 3 2.344427822e-38
2 7 4 2.344431886e-38
2 7 5 2.34443581e-38
2 7 6 2.344439733e-38
2 7 7 2.344443797e-38
2 7 8 2.344447721e-38
2 7 9 2.344451644e-38
2 7 10 2.344455708e-38
2 7 11 2.344459632e-38
2 8 2 2.345715335e-38
2 8 3 2.345719259e-38
2 8 4 2.345723323e-38
2 8 5 2.345727246e-38
2 8 6 2.34573117e-38
2 8 7 2.345735234e-38
2 8 8 2.345739157e-38
2 8 9 2.345743081e-38
2 8 10 2.345747145e-38
2 8 11 2.345751068e-38
2 9 2 2.347042645e-38
2 9 3 2.347046569e-38
2 9 4 2.347050633e-38
2 9 5 2.347054556e-38
2 9 6 2.34705848e-38
2 9 7 2.347062544e-38
2 9 8 2.347066467e-38
2 9 9 2.347070391e-38
2 9 10 2.347074455e-38
2 9 11 2.347078378e-38
2 10 2 2.348334082e-38
2 10 3 2.348338005e-38
2 10 4 2.348342069e-38
2 10 5 2.348345993e-38
2 10 6 2.348349917e-38
2 10 7 2.34835398e-38
2 10 8 2.348357904e-38
2 10 9 2.348361828e-38
2 10 10 2.348365891e-38
2 10 11 2.348369815e-38
2 11 2 2.349661392e-38
2 11 3 2.349665315e-38
2 11 4 2.349669379e-38
2 11 5 2.349673303e-38
2 11 6 2.349677226e-38
2 11 7 2.34968129e-38
2 11 8 2.349685214e-38
2 11 9 2.349689137e-38
2 11 10 2.349693201e-38
2 11 11 2.349697125e-38
2 12 2 2.350952828e-38
2 12 3 2.350956752e-38
2 12 4 2.350960816e-38
2 12 5 2.350964739e-38
2 12 6 2.350968663e-38
2 12 7 2.350972727e-38
2 12 8 2.35097665e-38
2 12 9 2.350980574e-38
2 12 10 2.350984638e-38
2 12 11 2.350988562e-38
