# .PCD v0.7 - Point Cloud Data file format
VERSION 0.7
FIELDS x y z rgb
SIZE 4 4 4 4
TYPE F F F F
COUNT 1 1 1 1
WIDTH 179
HEIGHT 1
VIEWPOINT 0 0 0 1 0 0 0
POINTS 179
DATA ascii
6.487883329 8.560261726 6.740322113 3.568085642e-39
7.105369806 5.5140028 7.275834084 5.009850803e-39
8.985741615 5.963159561 8.049346924 9.421928701e-39
11.69126225 1.022583365 12.22489929 1.571352619e-38
10.85758877 1.416638851 12.62054539 1.369674661e-38
11.37143374 1.500016689 12.54817676 1.489132272e-38
9.186995506 1.488684297 11.14554691 9.84032139e-39
7.64837265 1.914372206 10.653234 6.26266488e-39
10.2879467 6.2677598 9.269282818 1.245541337e-38
13.03005123 5.586507797 9.740364552 1.887745774e-38
10.79236126 2.422291756 12.87962532 1.361424797e-38
11.05048275 2.420749187 12.83826542 1.416525954e-38
8.86615181 2.520455837 11.57330513 9.114979878e-39
10.40693855 2.690347433 12.82644939 1.269840273e-38
10.79178524 2.790714264 12.99154758 1.361748076e-38
6.87404561 3.070685625 11.6594553 4.43639463e-39
10.85746384 5.792750359 11.10621738 1.373687139e-38
6.168851376 6.936246872 12.11297703 2.818885622e-39
10.1506238 3.855971336 12.73558331 1.206595329e-38
7.902587652 3.994392395 11.835145 6.832732713e-39
11.81824589 4.014317036 12.33097935 1.601630055e-38
12.26906395 4.006515503 12.06483841 1.702648119e-38
5.164753646 5.386357784 11.05355453 4.167755906e-40
10.47281218 4.901952267 11.71346092 1.29021221e-38
7.819324017 3.496283293 6.337913036 6.644202018e-39
9.858226299 0.4806016684 12.51277542 1.139224683e-38
7.512430906 5.812706947 11.35488892 5.930862627e-39
12.83489943 0.956602931 11.23138142 1.837600308e-38
13.14048862 4.737244129 10.96379137 1.914547429e-38
7.275249004 6.813007355 10.91357327 5.389161278e-39
9.606464863 8.862334251 7.105614185 1.082597371e-38
6.776446581 7.007780075 11.73459148 4.197122917e-39
13.98997402 1.177248478 10.77089071 2.104136805e-38
6.513612509 7.007456303 11.9767828 3.646118348e-39
7.331209421 7.372184753 10.87707806 5.486017627e-39
9.274414062 8.957452774 7.361488342 1.009201561e-38
9.140328407 8.388814926 7.839157581 9.811503688e-39
12.63174486 1.958601475 11.88572693 1.792617647e-38
13.06890202 2.049974442 11.53669357 1.893707178e-38
7.542880535 6.631258965 10.83082914 6.030213287e-39
12.83313322 3.883068562 11.84419346 1.840293043e-38
12.48550701 2.490118504 12.203022 1.756350921e-38
5.107200518 5.381951332 9.562023163 3.248868451e-40
7.626535892 5.341908455 10.97608089 6.202050314e-39
13.97603703 2.799539328 10.02265549 2.105604945e-38
13.25849247 5.077610493 10.45145798 1.942383242e-38
13.69272137 3.17784977 10.8178854 2.041681633e-38
6.954925776 5.545752525 12.0726614 4.642679777e-39
11.67505789 3.348531723 12.73628807 1.564287412e-38
14.01364803 0.5422537327 8.893040657 2.112739656e-38
12.80432129 0.8762574196 6.991562366 1.828329878e-38
14.75601006 1.431087971 8.473119736 2.288014909e-38
13.03326893 1.266250491 6.906440258 1.883789628e-38
14.86155319 1.532673359 8.72244072 2.306490469e-38
12.87251043 1.341950178 6.48909831 1.847125635e-38
12.95703888 1.531830907 6.651942968 1.86567266e-38
6.137727261 2.304591894 9.423268318 2.684624414e-39
14.95716095 2.079735041 9.634126663 2.334546566e-38
9.813878059 4.918604374 6.35959959 1.134072809e-38
14.9318428 2.347602606 9.300540447 2.325613008e-38
13.31325817 2.204471111 6.817414284 1.948935013e-38
7.032023191 7.722855091 7.415794373 4.846274431e-39
5.078028709 6.175751209 10.13734531 2.402470165e-40
14.04488754 2.996418238 8.557640076 2.124146226e-38
5.035992231 5.734045982 10.14056921 1.444654639e-40
13.94322967 3.350391388 8.142317295 2.096916895e-38
6.465339899 7.646785736 11.22445393 3.46816045e-39
5.2081386 5.470655441 10.55574751 5.096704684e-40
12.189147 6.021346092 10.28408051 1.686140123e-38
8.247676373 6.226097107 9.528934479 7.679617249e-39
8.361055613 5.887739182 10.08210516 7.951916166e-39
5.694358885 7.799053192 10.13565445 1.724681716e-39
6.48664403 7.95468998 8.790789127 3.562778925e-39
6.321960688 7.847519398 6.146354675 3.194265455e-39
12.61291981 5.914304733 8.595817566 1.787045523e-38
8.429090738 6.122036457 9.494493961 8.045883037e-39
12.19660997 6.157025814 8.631486893 1.695425407e-38
11.02036572 4.387547493 11.9582119 1.418316393e-38
14.48458862 2.350168467 10.19131756 2.224597045e-38
9.112820148 5.995752335 9.571146965 9.697848573e-39
5.626458585 7.236310959 11.34383392 1.53603191e-39
6.135607839 3.699427128 11.29521561 2.69724731e-39
10.22008467 1.632807136 12.45235634 1.222952546e-38
7.175588846 3.577321768 6.516320705 5.083723055e-39
6.210553408 5.307697296 7.667963028 2.89549601e-39
9.466156006 1.978486776 11.53366089 1.048748867e-38
7.041592836 4.600333214 6.665400743 4.817547813e-39
9.898181438 2.196644306 12.48977089 1.149986515e-38
6.33257091 6.262965202 7.4472332 3.179962401e-39
5.337670416 5.480568886 11.89830685 8.770600971e-40
6.809696913 0.5783510208 7.851107121 4.22998757e-39
6.681083322 8.750174522 3.653010964 4.028947484e-39
7.048266172 0.7235429287 7.857618809 4.782076745e-39
5.137277708 6.352770805 10.13579559 4.257116709e-40
7.560260296 0.7783656716 9.42918539 5.976711711e-39
8.302705526 0.8812013865 7.183593273 7.722223729e-39
7.362385035 1.067706585 8.59902668 5.52001593e-39
6.600639582 8.018642426 3.991097391 3.838471786e-39
5.352198929 6.164541721 8.48062706 8.830366351e-40
6.417407751 7.118449211 7.388208389 3.371524105e-39
6.219763637 7.490889549 6.978336334 2.915559802e-39
6.323245525 8.027130127 5.979640007 3.196053511e-39
8.301620483 8.866805077 7.469036102 7.795414949e-39
5.876415431 7.746439457 8.48114872 2.091606114e-39
6.455994964 7.750132561 4.573372006 3.468998426e-39
9.030610085 2.268682957 6.267035961 9.479978892e-39
5.904430687 2.532228947 9.498819351 2.135766634e-39
6.220868587 7.843049049 6.72611022 2.918779986e-39
12.27047014 5.900373936 7.821473122 1.704354901e-38
5.244985461 7.416894436 9.2997365 6.190390109e-40
9.017039299 3.456719875 5.926935911 9.398894157e-39
10.77928925 4.228528023 5.801986933 1.353866053e-38
10.44909048 5.162168026 6.524507999 1.281261276e-38
8.225345135 8.575681686 7.392186165 7.609230027e-39
10.47884369 4.296037674 6.039802551 1.289653933e-38
10.77068758 4.307001114 6.034142494 1.35393864e-38
8.721693754 0.6942299008 5.879991055 8.730931613e-39
9.45911026 4.822643757 6.324041128 1.051348976e-38
13.17671204 3.982360363 6.805050611 1.923034533e-38
7.276334286 7.300198078 7.935668468 5.393359568e-39
11.33523369 4.376467228 6.267259598 1.491764471e-38
12.40104294 5.761389256 7.680914402 1.740980919e-38
11.20675325 4.391499519 6.245597839 1.455030273e-38
9.96999979 5.351562977 6.76772666 1.171203014e-38
10.72646999 6.07953167 7.589156628 1.346374991e-38
7.385968924 0.3729905188 7.331421375 5.605706733e-39
12.1834631 4.359621048 6.268129826 1.68458314e-38
7.962388754 0.483109355 7.168718338 6.983951035e-39
10.32590437 9.68043232 5.744931936 1.257833247e-38
7.898984432 0.6628949642 7.257843018 6.802077908e-39
12.25868511 0.9463783503 6.247081041 1.699829267e-38
7.732515812 8.072357178 7.79858923 6.502554565e-39
10.6532259 1.460459471 5.389335632 1.323767003e-38
11.03743458 1.643420339 5.410450459 1.415781865e-38
10.45958042 1.64781332 5.304486752 1.27802834e-38
9.806581497 0.1774662435 12.48604202 1.12978988e-38
10.84402037 1.741312265 5.306583166 1.369935583e-38
10.52268505 1.930707216 5.173546314 1.296645992e-38
5.953056931 5.684671879 7.679018497 2.256234861e-39
11.29063177 2.380823135 5.337824583 1.471564614e-38
7.184535503 2.247060537 7.189965725 5.163385471e-39
6.800171852 2.218486071 7.590353012 4.245044522e-39
12.57399178 2.438529015 5.947031498 1.774659727e-38
9.940937042 2.491835833 4.923971772 1.159430005e-38
7.019531488 2.461952686 11.23915482 4.706504718e-39
10.00398827 2.85712862 4.920035362 1.178119964e-38
8.593272924 2.84048295 6.582863808 8.474821898e-39
12.059371 3.004491329 5.637012482 1.655810559e-38
9.61837244 3.037309885 4.928355455 1.086427961e-38
9.531139851 8.764169693 6.578911066 1.07330424e-38
10.51630116 3.219836712 4.983935237 1.297829248e-38
11.41653633 3.38463521 5.356726646 1.509195643e-38
9.948111057 0.1479132324 6.56652236 1.157283496e-38
9.545385361 0.2115286887 6.543476582 1.065483733e-38
11.10019302 0.3982477188 7.807264805 1.433009708e-38
8.533715725 0.2064746916 7.519129753 8.267149466e-39
10.6545639 0.3819582462 7.865373611 1.322807253e-38
13.09726524 0.1451660991 8.929812908 1.891975873e-38
6.109666586 2.331481934 9.533582687 2.592793121e-39
8.597370386 0.04137140512 8.334017754 8.449414956e-39
10.3503747 0.3448372781 9.042976856 1.249307187e-38
11.28798533 0.1028680354 9.71846199 1.46949952e-38
6.475198507 0.09712080657 8.608131409 3.490666704e-39
10.33045816 0.3475262523 9.335072041 1.249308308e-38
11.50405931 0.09872114658 9.930141449 1.524601659e-38
12.16437435 0.1126844436 10.08744144 1.680722563e-38
10.13107967 0.338629961 9.742941856 1.203391961e-38
11.32459354 0.3316709995 10.21525765 1.478864258e-38
12.75425005 0.4051613212 10.65962315 1.818728882e-38
13.71802616 0.7462924719 10.52318001 2.039456511e-38
10.62906075 0.4071309566 11.1401844 1.322819024e-38
9.327233791 0.3702627122 10.98484039 1.010541903e-38
5.796022892 2.873288631 10.02080727 1.863148221e-39
7.086108208 2.106767178 10.77770233 4.886930303e-39
6.218781233 4.827114582 11.16360378 2.891315937e-39
8.082466602 7.451299667 7.862369061 7.323337115e-39
6.9111619 7.26702404 6.798653126 4.566440733e-39
7.044540882 8.431578636 3.233233154 4.852581675e-39
6.876621008 8.076504707 3.60817939 4.482025112e-39
