# .PCD v0.7 - Point Cloud Data file format
VERSION 0.7
FIELDS x y z rgb
SIZE 4 4 4 4
TYPE F F F F
COUNT 1 1 1 1
WIDTH 179
HEIGHT 1
VIEWPOINT 0 0 0 1 0 0 0
POINTS 179
DATA ascii
10.27557659 0.7483463287 12.26459312 1.24049386e-38
11.50038052 1.223097205 12.47810364 1.525615218e-38
10.60027504 1.316628218 12.49320984 1.314501197e-38
8.673941135 5.330504417 10.85627794 8.681604506e-39
9.186995506 1.488684297 11.14554691 9.84032139e-39
6.955869913 8.136115074 6.960917473 4.666173947e-39
9.371980667 1.680463552 11.29720402 1.020946264e-38
13.93920994 1.820957899 10.64950514 2.095526807e-38
7.64837265 1.914372206 10.653234 6.26266488e-39
7.344279528 8.060046196 8.705735207 5.584231834e-39
7.158870459 8.730995178 3.171512723 5.130955221e-39
10.85675955 2.791252136 13 1.370931626e-38
6.295814037 6.845339775 12.17262554 3.093677448e-39
5.574326217 4.928388596 9.813652992 1.422976552e-39
10.08593512 3.320702553 12.83858967 1.196945848e-38
6.540639281 7.958059311 8.332160473 3.654597605e-39
12.46853828 6.041820526 9.351653099 1.750421607e-38
8.610427618 3.805366755 11.72653675 8.48397518e-39
10.40749121 3.947066307 12.72688294 1.270987796e-38
11.17783833 4.118532181 12.53590393 1.454801581e-38
11.75425625 4.102216721 12.26143551 1.583370295e-38
8.295415878 5.683246613 10.43360806 7.766464123e-39
6.424074411 4.697460175 11.23248386 3.349420023e-39
7.260617971 4.796531677 11.41362572 5.37052541e-39
7.429533958 3.962007999 6.341451883 5.730151845e-39
10.06741238 8.864472389 6.800244331 1.192798845e-38
9.789426804 0.6586834192 12.53113937 1.12103695e-38
14.03910732 0.889410913 10.41976929 2.113067981e-38
13.82505989 0.988786459 10.75328922 2.06722324e-38
12.823493 4.565214634 11.39038944 1.831717657e-38
6.768791199 7.282185555 11.57804489 4.199628439e-39
6.965125084 5.817955017 12.0892601 4.645192305e-39
5.338248491 4.059265137 9.405195236 8.640560474e-40
13.39613628 1.411410093 10.82628012 1.96659908e-38
5.41178143 4.491348267 8.906599998 1.051656281e-39
6.691314697 6.548709869 12.01057625 4.009156945e-39
12.8859849 4.824263573 11.2163496 1.850335309e-38
14.85902309 2.143563986 9.927257061 2.307068785e-38
8.437934399 7.720846176 8.561621189 8.15239293e-39
12.41540432 2.398634911 12.21711731 1.737912076e-38
12.91183662 2.840230465 11.83639526 1.857691425e-38
12.59246349 5.33730793 10.96138811 1.786515833e-38
12.8146677 4.908950329 11.22780991 1.832039956e-38
12.41793442 3.44659853 12.2321415 1.738880653e-38
14.18108654 0.8437048793 8.159068584 2.149758319e-38
12.75331926 0.7824025154 7.241957188 1.819075423e-38
12.96341658 1.350204825 6.65484333 1.865493294e-38
14.8292532 2.15811038 8.469756126 2.30706346e-38
13.08251762 2.549969673 6.488194942 1.894155453e-38
13.86109734 4.349836826 8.80392313 2.079484882e-38
13.95095634 3.808347225 9.715155602 2.097352979e-38
7.813698053 4.614004612 6.453249454 6.654609462e-39
7.860737801 7.040242672 8.407176018 6.768756432e-39
14.03625584 3.268017769 9.218616962 2.115216171e-38
10.2067709 6.212944031 9.713315964 1.227104033e-38
7.61745429 7.808253765 9.436419487 6.224595805e-39
6.91985178 9.155335426 3.961007834 4.583558995e-39
12.09353924 6.103311062 10.23843622 1.66784463e-38
6.650646329 7.992918491 8.019473553 3.930451616e-39
5.127039671 5.474607944 11.13575935 3.260190942e-40
6.828399658 7.948663712 8.949154377 4.389303995e-39
8.247676373 6.226097107 9.528934479 7.679617249e-39
6.983647823 7.719291687 7.941285133 4.754457152e-39
12.55864859 5.840049744 8.095850945 1.777788406e-38
14.67143631 2.58291769 9.180182457 2.27072653e-38
10.63939333 4.228554249 12.40706062 1.326339086e-38
5.319391757 7.065772057 10.62705565 7.995276544e-40
8.863582611 6.032101631 9.698648453 9.147198532e-39
12.41803694 6.052641392 8.737107277 1.741235815e-38
6.726805925 8.682204247 6.135540485 4.120153797e-39
14.43315601 2.458881378 10.04294157 2.215520695e-38
6.996602416 0.4953489304 11.483675 4.688576506e-39
6.588006496 2.98989296 11.42941189 3.700984788e-39
6.922048211 0.4362562299 9.362236023 4.504112379e-39
9.30002737 0.6055648327 12.50293922 1.010762468e-38
7.294016123 0.7662557364 9.223174095 5.333856232e-39
6.124329448 4.480592251 11.04558277 2.704412149e-39
9.30486393 1.248878956 11.30179501 1.011368109e-38
6.034008026 4.218801975 11.05382824 2.426753266e-39
6.089203835 3.611293316 11.24171543 2.604691547e-39
6.781340957 6.171669006 7.385087013 4.18907526e-39
5.483156264 6.095729828 12.03820515 1.157951776e-39
6.780473948 6.454303741 7.424664021 4.191946521e-39
6.244901896 4.962600231 11.62455082 2.984603178e-39
6.133340597 7.893653393 7.287734032 2.735487344e-39
9.542276859 2.743187189 12.34068298 1.067836233e-38
7.946685553 3.684596062 6.322864056 6.921502168e-39
9.50521183 2.452887535 11.93394852 1.05840017e-38
6.020102978 4.739252567 10.81934357 2.43140838e-39
5.137277708 6.352770805 10.13579559 4.257116709e-40
6.395339489 7.396029949 6.398597717 3.3740002e-39
9.019081593 0.9886051416 6.275910854 9.376306627e-39
7.712682724 1.131639361 10.66846561 6.347327129e-39
6.417407751 7.118449211 7.388208389 3.371524105e-39
9.422430515 1.500159383 5.772402763 1.039114239e-38
6.566554785 7.927152634 4.069432855 3.745921628e-39
11.24145937 4.591067791 6.307939768 1.464393329e-38
5.904430687 2.532228947 9.498819351 2.135766634e-39
6.259410858 7.401796341 7.145390987 3.00668484e-39
5.793203413 7.318859577 8.226296425 1.903979256e-39
6.456489682 7.502552032 5.164024591 3.466508319e-39
9.045035362 2.72186327 5.683940887 9.483903929e-39
11.48421192 5.25799942 6.554398775 1.520105453e-38
8.879157543 2.919189453 6.096202612 9.11837102e-39
5.649978578 3.252713442 10.15841866 1.591234662e-39
5.355268657 7.066549301 10.87598419 8.913729596e-40
8.572752476 5.013593674 6.568088531 8.403075417e-39
13.4378767 3.757904768 6.94341588 1.977921152e-38
11.86238813 3.890688419 5.765939236 1.610682583e-38
7.202936172 7.738793373 8.149986267 5.213641639e-39
8.785374403 0.5554460883 5.714121342 8.913162071e-39
12.73741007 4.782017231 6.874626637 1.813549683e-38
9.45911026 4.822643757 6.324041128 1.051348976e-38
8.875509739 0.2470039427 5.597136259 9.093959e-39
14.0579834 2.215084553 8.182106495 2.12342736e-38
10.93185139 5.824434757 7.275643349 1.392076379e-38
9.519508839 4.344653606 6.138216972 1.060101346e-38
7.724268913 6.659767628 8.000027657 6.39781311e-39
11.19384289 3.981912613 5.472435951 1.454668738e-38
9.729342937 4.356445789 6.124767542 1.115202644e-38
12.61321497 4.805602551 6.842482328 1.786034767e-38
8.013558149 6.294779301 8.178312778 7.129274093e-39
8.21942997 6.161172867 8.017372131 7.587011039e-39
8.348653316 6.146140575 8.03579092 7.862517528e-39
10.14315414 0.3111830056 5.919361591 1.203342355e-38
9.436328888 0.6014114022 5.715530396 1.038288874e-38
9.243251324 0.7785276175 5.800039291 9.925507725e-39
13.35569286 0.7532706857 7.69310379 1.956794475e-38
10.39461374 9.271901131 5.703348637 1.275805601e-38
9.84637022 9.340389252 6.183885813 1.147309334e-38
12.39205122 0.9371385574 6.364514112 1.727380337e-38
9.819311619 0.9731646776 5.718372583 1.130483103e-38
7.642316341 0.8314195871 7.51879406 6.160672772e-39
11.42080689 1.166686893 5.706621885 1.507188003e-38
6.763350844 8.105401993 3.567118049 4.206874554e-39
10.58635473 1.931251287 5.176164865 1.305829541e-38
11.48572445 2.008208275 5.450575113 1.51712391e-38
7.058439732 1.931147456 7.767448902 4.793194647e-39
9.427921772 2.284803629 5.276037931 1.039829882e-38
6.800171852 2.218486071 7.590353012 4.245044522e-39
7.019531488 2.461952686 11.23915482 4.706504718e-39
7.117855549 2.544300079 6.819892406 4.982570325e-39
12.059371 3.004491329 5.637012482 1.655810559e-38
6.414472938 2.899595261 7.026275635 3.332768394e-39
6.285082221 2.883208752 7.266768456 3.057270313e-39
10.58081675 3.12887764 4.985252857 1.306941051e-38
6.094457626 2.964927912 7.449287415 2.598815902e-39
10.60262394 0.05749866739 6.216693401 1.313294959e-38
9.82394886 0.07770813257 6.462829113 1.129660681e-38
9.948111057 0.1479132324 6.56652236 1.157283496e-38
12.08788776 0.1092696488 7.155343533 1.662344954e-38
11.5885973 0.2835221887 7.292051315 1.543102722e-38
11.87627363 0.08979253471 7.594309807 1.607209324e-38
12.87119389 0.2417295575 8.136007786 1.846127069e-38
10.12176704 0.3638480604 7.74830389 1.203384815e-38
9.850936413 0.349606216 8.15439558 1.139101369e-38
7.140598059 0.04020506516 8.701195717 5.051514209e-39
6.475198507 0.09712080657 8.608131409 3.490666704e-39
6.675495625 0.06270834804 8.848717213 3.949852593e-39
11.61171484 0.1763841361 10.31904268 1.552189582e-38
11.90634489 0.1168313324 10.4650979 1.616438977e-38
6.395545244 5.170007706 12.19564629 3.353758443e-39
9.558384895 0.324932456 9.757269382 1.065602844e-38
13.71802616 0.7462924719 10.52318001 2.039456511e-38
8.628340244 0.08041664958 10.5302496 8.541687657e-39
6.848046303 2.15255785 10.65915108 4.336271855e-39
9.166069984 0.3167940974 10.55718136 9.737702903e-39
10.49813795 0.406411618 11.10658264 1.286084685e-38
11.3500452 0.1237318739 11.80315685 1.487874047e-38
6.668790579 1.837441802 8.748742104 3.965992749e-39
9.583837986 0.4005673528 11.31558418 1.074863745e-38
7.301061392 0.09248149395 11.17126083 5.419303208e-39
9.531608582 0.1284423918 11.74664116 1.065430624e-38
6.534486413 2.217229366 10.36019516 3.602295541e-39
7.221889734 0.09866273403 11.42976856 5.236000757e-39
7.351781368 0.09843607247 11.46598244 5.511508647e-39
8.006820679 0.1076434851 11.63761902 7.072717687e-39
6.940191984 8.070608139 4.04385972 4.573876023e-39
7.811630011 7.207346916 8.160755157 6.678347458e-39
