# .PCD v0.7 - Point Cloud Data file format
VERSION 0.7
FIELDS x y z
SIZE 4 4 4
TYPE F F F
COUNT 1 1 1
WIDTH 1215
HEIGHT 1
VIEWPOINT 0 0 0 1 0 0 0
POINTS 1215
DATA ascii
-1.192759172 -2.492664894 -0.06272525937
-1.655208146 -2.614268252 0.06917340588
-1.802121059 -2.497329611 -0.1511164392
-1.625467971 -2.234042975 -0.035185452
-1.731210607 -2.027361786 -0.1853744555
-2.187463442 -2.071159609 -0.2075810952
-2.325920971 -2.08399616 0.2260251105
-2.445830812 -1.666497571 -0.05664731824
-2.707854563 -1.440346687 -0.2497915415
-2.855066532 -1.505554757 0.09344912776
-2.808043838 -1.46308863 -0.09107998313
-2.938358746 -1.295682639 0.01740095659
-3.070155964 -0.9514495261 0.07059491511
-2.818882754 -0.7559680553 -0.08540316447
-3.096009707 -0.1985002146 -0.1547401365
-3.150766042 -0.2414999017 -0.1553468204
-3.171645772 -0.2020602311 0.07008562405
-2.936315217 0.2890989955 0.136650004
-3.05628532 0.6361563816 0.1166023055
-2.779086304 0.7481769506 -0.07077217728
-2.986962677 0.8064562053 -0.2014848197
-2.835208924 0.8199630305 -0.24802702
-2.513146516 1.340913469 0.03092347353
-2.712485949 1.473015967 0.1957878882
-2.447570531 1.673163451 -0.01989774851
-2.478775208 1.897106557 0.2404904705
-2.304869876 1.910684804 -0.03594326382
-2.15854836 2.366632731 0.1033891288
-2.034989977 2.20299991 -0.03460153763
-2.029476906 2.415531924 0.1556904758
-1.541638555 2.372971021 0.1140171207
-1.328017657 2.514306577 0.06143732843
-1.190770522 2.898789798 -0.1819638441
-1.200973287 2.803833927 -0.2279274256
-0.8874005717 3.022588442 -0.175642803
-0.6577215002 3.176325215 0.002960006712
-0.4277826027 2.998861118 -0.1569978148
-0.3904356083 3.081033659 -0.05211659505
-0.1050466859 2.76569581 0.1730252486
-0.2338355671 -2.875008438 -0.0590057205
-0.1641523083 -3.118517344 -0.1872292765
-0.409210499 -2.871655479 -0.1820354964
-0.6679629999 -2.959113113 -0.1864938406
-0.8106140884 -3.055511078 -0.05408342245
-1.239122951 -2.818077971 -0.1673326392
-1.267086103 -2.762021306 0.1170329021
-1.439276881 -2.473787517 -0.2374659616
-1.691930134 -2.736215908 -0.1527656936
-1.709103625 -2.232540206 -0.0924530345
-1.889760243 -2.428615184 -0.3684393077
-1.970308841 -2.28780124 -0.352391059
-2.042944659 -1.73282152 -0.1000266302
-2.456454852 -1.63121323 -0.3151688225
-2.552916681 -1.693413802 0.03030135547
-2.416734315 -1.362303997 -0.3783013041
-2.731152138 -1.373580856 0.002099670392
-2.984800688 -1.271237401 -0.09386040992
-2.894824054 -0.6760152267 -0.4134777237
-2.77376169 -0.8690284923 -0.4404519531
-2.981572984 -0.56629887 -0.1602800068
-3.222158617 -0.4463227784 -0.09516197861
-3.13760957 0.07820856183 -0.08430834045
-3.205401531 0.3488945268 -0.3245256177
-3.017457881 0.2202641109 -0.03782436862
-2.893935363 0.6400285076 0.02979044635
-2.954214211 1.040587314 -0.09094859877
-2.58973802 1.252293565 0.04943997581
-2.906410157 1.394253235 -0.03811098373
-2.554436259 1.327177439 0.04890276161
-2.665401776 1.621710141 -0.1653050835
-2.564858816 1.909097411 -0.3730952201
-2.16517693 2.13888995 -0.2334570635
-2.01144251 1.949707348 0.02499867393
-1.733780729 2.09359557 -0.04111258981
-1.790538021 2.417373389 -0.0221656311
-1.623601281 2.573923794 -0.2476890813
-1.494991383 2.815657144 -0.2953409023
-1.194421619 2.571039517 0.08633613962
-1.00631673 2.762373566 -0.1982198298
-0.8747164619 3.107285084 -0.05435336424
-0.6513977078 3.054577505 -0.1049598797
-0.4621925245 2.887938192 -0.2043222662
-0.1065916065 3.178871801 0.187867215
0.190401469 2.975891901 -0.1079669039
0.0689618748 -2.772647544 0.1135253241
-0.2145104647 -2.897952057 0.1064834702
-0.2131548895 -2.837856449 -0.09282391425
-0.7446865971 -2.931499766 -0.1746611392
-0.6155899686 -2.874495999 -0.1316006127
-1.114091546 -2.74114568 -0.1358824013
-1.419592207 -2.544292081 -0.2439373705
-1.457465691 -2.780203441 -0.173396599
-1.505110484 -2.333177938 -0.4499241447
-1.543670657 -2.299714852 -0.3580606514
-2.093225645 -2.369204764 -0.08555412127
-2.204980713 -2.139909777 -0.1923617032
-2.059189082 -1.885296621 -0.1889854371
-2.541587888 -1.609129086 -0.446381829
-2.685010452 -1.383800307 -0.5004196259
-2.789086449 -1.37473651 -0.4570163452
-2.885663955 -1.19568448 -0.250296303
-2.636894997 -1.220636238 -0.362761062
-2.693626577 -1.014654165 -0.5467657116
-3.151706321 -0.6253787905 -0.5606368299
-2.828444415 -0.195837587 -0.5588918139
-2.888686432 -0.3581003189 -0.657452082
-2.841527109 -0.03299766167 -0.1941258721
-2.946091997 0.04275898409 -0.4415682906
-3.089119806 0.6159591511 -0.317817968
-2.982292618 0.6516060301 -0.3232375842
-2.709036904 0.6352712754 -0.6393474165
-2.976267835 0.9958906941 -0.407841291
-2.884107743 1.201821608 -0.4089775234
-2.802867452 1.64607694 -0.3168749561
-2.554931769 1.625376044 -0.4441408454
-2.20108577 1.835340521 -0.3367935136
-2.039741312 2.133572051 -0.1591390897
-2.237871198 1.9478819 -0.2001824704
-1.961141895 2.359105079 -0.143103381
-1.882679858 2.29394894 -0.2547942105
-1.719363358 2.607408236 -0.1023627543
-1.437735433 2.744936852 -0.1948769183
-1.127680807 2.59138011 -0.05402226363
-0.9306276433 2.694152029 -0.1179225451
-0.659316431 2.753240244 0.0003611113073
-0.4045064977 3.114561558 -0.1379900702
-0.3691856537 3.215349393 -0.02520048638
-0.4044209443 2.765071721 0.1153717688
-0.0381858373 2.873406445 -0.07616398467
0.1286864333 -3.017376332 0.1842497463
-0.09187795831 -2.755349269 0.1497551328
-0.5403411469 -2.88993471 -0.3284952387
-0.3782073217 -3.050937544 -0.05018687949
-0.652151263 -3.04824659 -0.001786805395
-1.269359813 -2.839860606 -0.2319542541
-1.281966238 -2.685703613 -0.05168773885
-1.492834183 -2.593407025 -0.1101931386
-1.449981857 -2.753393966 -0.1158212573
-1.985222583 -2.357244486 -0.3361136885
-1.778456252 -2.443027197 -0.5687744113
-1.948910938 -2.296567968 -0.4563247359
-2.101879854 -1.888961238 -0.6160854224
-2.447162353 -1.563345548 -0.5249903388
-2.696381636 -1.762130002 -0.6035017885
-2.325754092 -1.536401186 -0.7842412437
-2.662802272 -1.454442347 -0.6803355792
-2.503233789 -0.9460732795 -0.80907509
-2.841233891 -1.009378914 -0.7869970912
-2.823848881 -0.6348679239 -0.488047479
-2.708421292 -0.5536035861 -0.4058903555
-2.917970292 -0.3346000905 -0.4492529479
-3.166677843 0.02975468874 -0.512924305
-3.036977334 0.3957635084 -0.7520035853
-2.734637265 0.2162169967 -0.7874225529
-2.926889296 0.8147236251 -0.7871880886
-2.62785813 0.7100634338 -0.6222152201
-2.823058175 0.8574556523 -0.3622535348
-2.700173916 1.34141067 -0.5297355402
-2.574640836 1.496035772 -0.348268015
-2.368954186 1.638162492 -0.452126353
-2.295945342 1.764393604 -0.4369436438
-2.245918999 2.093389391 -0.2369312737
-1.845031725 2.281688237 -0.3901678509
-1.796985373 2.106272871 -0.4189503786
-1.879893653 2.153371214 -0.1404217114
-1.404555274 2.530609907 -0.4601404953
-1.309841135 2.600437511 -0.1472496348
-0.9692525399 2.65343729 -0.3869073915
-1.141791402 2.607522298 -0.2709499671
-1.068015547 2.6856767 -0.2898786032
-0.7938292959 3.047520148 -0.3297820309
-0.2346177003 2.830021578 -0.2844714475
-0.4542874305 3.099958846 -0.1661883776
0.004749302569 2.805808023 0.2426479616
-0.1873076305 -3.044037037 0.1758247512
-0.3332833985 -3.108870451 0.09525852648
-0.5237355798 -3.21802867 -0.1537249969
-0.8567250074 -2.726544456 -0.104866191
-0.7709490131 -3.027684166 -0.1329949583
-0.9191522682 -3.030617388 -0.09855288189
-1.158260939 -2.582662545 -0.4620546512
-1.571027181 -2.531812182 -0.2493554273
-1.61607516 -2.76191446 -0.2879354038
-1.875141045 -2.482107752 -0.4314344303
-2.088500259 -2.48125084 -0.7786603576
-1.830824061 -2.215628972 -0.5043857227
-1.934801728 -1.879856805 -0.6123910451
-2.298128926 -1.859374426 -0.6120873846
-2.196598698 -1.477900435 -0.7335293896
-2.614815167 -1.245981195 -0.907870435
-2.448390556 -1.368706658 -0.644371056
-2.548851355 -1.05989428 -0.9286330461
-2.594587657 -0.911443498 -0.8830761883
-2.81287347 -0.6701527481 -0.7164884266
-3.03583341 -0.4590996878 -0.6226443893
-3.108406179 -0.235348383 -0.7445392071
-2.689929544 0.04689311347 -0.6646699319
-3.015092025 0.1404222677 -0.6037390533
-2.661444757 0.4559210061 -0.830751126
-2.842347865 0.4170906995 -0.6118259831
-2.607896775 0.8233232429 -0.9036963321
-2.780501342 0.8599728319 -0.6638801635
-2.594848256 1.11329675 -0.6906828879
-2.291422475 1.248944528 -0.7465208425
-2.428914983 1.455321059 -0.6798525926
-2.255600264 1.626505269 -0.8346152631
-2.001244995 1.87027592 -0.5597717495
-1.975757453 2.290905782 -0.4647678147
-1.718189402 2.329856118 -0.5667836631
-1.781404737 2.341138606 -0.5363533852
-1.744437301 2.485739784 -0.5023399625
-1.614765249 2.520602347 -0.270343283
-1.158994834 2.881979734 -0.3221676651
-0.8307377073 2.958882725 -0.4898338622
-0.5739529622 2.635852644 -0.184549032
-0.4667368575 2.847387668 -0.126487907
-0.479344143 2.749771814 -0.3634510976
-0.4082958576 2.791561141 -0.003546342773
0.01293261548 2.97773165 0.0959607378
-0.2415869315 -3.114508259 0.1386963656
0.003877841159 -3.023188046 -0.2824563229
-0.2518322405 -2.776879109 -0.1891934889
-0.7275604751 -3.159454764 -0.1725634215
-0.5892912688 -2.789534908 -0.3804503295
-0.9137225703 -2.644814971 -0.3706563367
-1.011213022 -2.782941148 -0.5019880676
-1.309545896 -2.65069376 -0.2531824612
-1.515913848 -2.581174584 -0.607263378
-1.665440428 -2.474167704 -0.5034417992
-1.905771934 -2.32517653 -0.6134400615
-2.212965637 -2.043642885 -0.7230481793
-2.154003838 -1.854955707 -0.6463168422
-2.083657658 -1.86043144 -0.9078848438
-2.26438816 -1.581020022 -0.7972761884
-2.446483956 -1.301400448 -1.055531237
-2.536467355 -1.417194145 -0.9797114267
-2.559337316 -1.051856735 -1.021571269
-2.5124004 -0.7087848133 -0.9713523806
-2.52962652 -0.675513224 -0.8585752692
-2.956415594 -0.5340482762 -1.096573823
-3.008984799 -0.2131151421 -1.177316079
-2.751984917 -0.1549538202 -1.214307301
-2.577351811 0.2931377025 -0.8052206886
-2.795439818 0.1936457463 -0.9784310288
-2.725488655 0.3951836717 -0.8219907108
-2.644900061 0.9675432552 -0.98753722
-2.582133009 0.9271274856 -0.7244881538
-2.613963417 1.07740835 -1.155379687
-2.406159443 1.679436886 -0.702654433
-2.270506927 1.867221416 -0.7517628306
-2.337162528 1.848442067 -1.031520369
-2.26967565 1.92335232 -0.9245354864
-1.766638566 2.369119107 -0.7900663278
-1.741488905 2.221134088 -0.852172084
-1.770946979 2.268309572 -0.70085599
-1.666597716 2.329933158 -0.6960159349
-1.148161693 2.425647807 -0.5793600995
-1.15686232 2.656152314 -0.4174373594
-1.213456702 2.885133992 -0.3268319656
-0.7037428812 2.912107829 -0.3201228372
-0.674167331 2.794658193 -0.218070969
-0.6381703839 2.88358474 -0.05708747742
-0.3967521923 2.773801965 0.002890989656
-0.05111263943 3.150912518 0.218655652
0.2285202269 -3.037203573 -0.1178363879
-0.1412078909 -2.928259881 -0.02587631164
-0.4791439153 -3.187588458 -0.3186515593
-0.7553544502 -3.119490425 -0.04623261636
-1.01520267 -2.827550051 -0.1200359653
-1.027727678 -2.79730013 -0.3285278302
-1.229916647 -2.740069992 -0.3483420984
-1.190769372 -2.478812263 -0.3411142904
-1.546536152 -2.400214967 -0.60830301
-1.559099786 -2.281686771 -0.6063789005
-1.601862572 -2.342587885 -0.7223268917
-2.047777348 -2.074035991 -0.7372311453
-1.925734229 -2.004519951 -0.917813023
-2.277067517 -1.963314827 -1.096569668
-2.099501529 -1.717437681 -0.7891262472
-2.53465992 -1.326211416 -1.034000971
-2.394535507 -1.174266066 -1.006567701
-2.365064972 -1.016657791 -1.359350967
-2.744208626 -0.7410881803 -1.173745539
-2.653728252 -0.589405641 -1.251009672
-2.575792883 -0.3151770729 -1.100640246
-2.625998459 -0.01883854877 -1.169404584
-2.507100273 -0.1904036578 -1.154230441
-2.625190273 0.2026277551 -1.322996781
-2.68772192 0.3593183549 -1.003227916
-2.749608037 0.4755493651 -1.154129738
-2.681625047 0.6431467429 -1.138361678
-2.54891529 0.8849910823 -1.094456274
-2.459291045 1.383051351 -1.179157028
-2.531019201 1.663356903 -1.040343857
-2.542000052 1.782278294 -1.178126884
-2.050974284 1.900414214 -0.7424215088
-1.838445121 1.851787514 -0.788948344
-2.029495021 2.185919313 -0.8139456729
-2.017463389 2.019839598 -1.020185563
-1.828431146 2.280449969 -0.5277669474
-1.472383551 2.672206467 -0.4905394175
-1.195975656 2.578729531 -0.4028546753
-1.017476617 2.850471708 -0.30610636
-0.9084225054 2.82513639 -0.2313383831
-0.7948956286 3.034264269 -0.566849683
-0.831919192 2.945586843 -0.47256833
-0.1517617155 2.722214913 -0.06457916045
-0.3238224124 3.226132347 -0.1462779544
-0.2363582869 2.763467883 0.02668668586
0.2433559895 -2.760113232 -0.08136351386
-0.1976144556 -3.192128441 -0.0893867255
-0.3271188321 -3.093933493 -0.1443810906
-0.3632056564 -3.180962931 -0.4349131888
-0.891305467 -3.066535819 -0.5637456648
-0.8627193958 -3.00950198 -0.3729246791
-0.9068577617 -2.515602124 -0.5049886989
-1.420757013 -2.840388681 -0.8089688354
-1.201093932 -2.292587997 -0.8204870264
-1.674496548 -2.396618432 -0.9481874222
-1.4947919 -2.406638028 -0.9877441354
-1.908329253 -2.308788332 -1.054487164
-1.823496442 -2.144401701 -1.022397826
-2.167189316 -1.962564637 -1.37132596
-2.341676693 -1.841007972 -1.246449596
-2.169728725 -1.32790433 -1.012444125
-2.445964433 -1.14234434 -1.198468202
-2.623309361 -1.146601286 -1.304698988
-2.393217374 -0.8642913033 -1.487493229
-2.341575575 -0.8299064655 -1.148283545
-2.467358234 -0.2574977551 -1.246620266
-2.78800836 -0.1477263609 -1.276451303
-2.525999883 -0.1142173147 -1.567854994
-2.728032339 0.2039397898 -1.367935835
-2.453406197 0.5614616287 -1.306003795
-2.706563774 0.6271361182 -1.458510062
-2.674081944 0.6003203507 -1.431633012
-2.603774379 1.084343702 -1.53846287
-2.524212344 1.018629784 -1.210430111
-2.290738874 1.356486972 -1.412468681
-1.999388429 1.664118676 -1.095277149
-2.104833508 1.951099624 -0.9293040172
-2.06050653 2.059594858 -1.199465059
-1.797087167 2.070898159 -1.242508777
-1.506859192 2.451469496 -1.026897201
-1.338513662 2.31018756 -0.8646093747
-1.256443012 2.426058774 -0.7861763262
-1.186661634 2.448270746 -0.713806128
-1.195664088 2.817283139 -0.7670919111
-1.059309929 2.916537277 -0.6640782987
-0.7852556176 2.984919282 -0.264062079
-0.7656114429 3.107438403 -0.1873939254
-0.4573223373 3.101365752 -0.08628887593
-0.1385206669 3.021596931 0.01687659095
0.2496299509 3.039276125 0.1543589359
0.1221368587 -2.822095799 0.2272624307
-0.3349555718 -3.159626526 -0.07023610819
-0.3874219516 -2.93410298 -0.07722475596
-0.3249395273 -2.972732685 -0.2289610027
-0.8683686815 -2.861202946 -0.6869841388
-0.887212013 -2.788180945 -0.4378407349
-0.9821333379 -2.799697619 -0.9075438037
-1.411535635 -2.396506642 -0.5507232321
-1.462921666 -2.644334128 -0.8912798058
-1.429678837 -2.473209887 -1.169059416
-1.71466265 -2.386954226 -1.128604949
-1.967503056 -2.041900309 -1.110813049
-2.037304404 -1.937650961 -1.205104851
-1.888704998 -1.569840865 -1.457331422
-1.948313632 -1.519523983 -1.241112586
-2.295791539 -1.515792862 -1.642477271
-2.073132609 -1.192992123 -1.494930241
-2.36185088 -1.278129022 -1.652697649
-2.379408607 -0.8380668057 -1.381824021
-2.406631273 -0.5869780307 -1.395793993
-2.734117015 -0.3315011166 -1.465780994
-2.650080325 -0.3661927314 -1.728781034
-2.695073856 0.01189109545 -1.771944637
-2.458019169 0.01655667907 -1.822262452
-2.608603447 0.2728743767 -1.329245323
-2.584504468 0.4987279117 -1.705041933
-2.504162117 0.8981221182 -1.384388794
-2.451447167 1.111378029 -1.498493178
-2.140987373 1.280765928 -1.551148717
-2.131148359 1.597779204 -1.412576685
-1.896671752 1.811470892 -1.488912024
-1.89331449 1.848308622 -1.255261027
-1.91576667 2.141287773 -1.146022381
-1.780128686 1.895750297 -1.149977081
-1.462039415 2.373117088 -1.265592966
-1.332652711 2.564957334 -0.9293642345
-1.614265515 2.554975407 -1.082193428
-1.309089092 2.697491778 -0.5554332694
-1.127977914 2.908907877 -0.4512287489
-1.128565356 2.680563094 -0.4506322532
-0.5883467539 2.824687346 -0.3695092213
-0.4847174586 3.051328079 -0.2285981116
-0.569134084 2.798589416 -0.4098825496
0.03474285942 3.199127668 0.0352941124
-0.1916407197 3.037135735 -0.156384687
-0.06580803122 -3.116454362 0.1644654907
-0.3509181349 -2.91926676 0.1161509725
-0.2518780765 -3.179847581 -0.04702693842
-0.4443669562 -2.953285108 -0.2949819877
-0.4942571139 -2.889915307 -0.4811339846
-0.8719436811 -3.024553462 -0.4726946094
-1.195027544 -2.781610981 -0.7891130319
-1.273141328 -2.681783406 -0.7860819045
-1.406469172 -2.687504629 -0.7686583426
-1.219061125 -2.422331811 -1.143229867
-1.815639349 -2.498822953 -1.208311447
-1.501063199 -2.005966072 -1.322246104
-1.600219534 -2.00020325 -1.444258991
-1.979777784 -1.942061387 -1.218819621
-2.111178559 -1.54293797 -1.538905661
-1.929305945 -1.366556584 -1.553534354
-2.391651744 -1.045286708 -1.580596382
-2.381498265 -0.8594290931 -1.874955477
-2.421699906 -0.8267834699 -1.772020291
-2.383218134 -0.7555377425 -1.908016006
-2.633920035 -0.5981212323 -1.518934081
-2.383165568 -0.219537487 -1.816701009
-2.32284091 -0.179370262 -1.875290823
-2.342916075 0.2035497319 -1.62381666
-2.203792182 0.5886308105 -1.903303481
-2.575850144 0.472416169 -1.581292205
-2.12182282 1.057922104 -1.792819564
-2.103854062 1.066510307 -1.490779767
-2.183540808 1.069191649 -1.81439504
-1.901562079 1.400648238 -1.622399977
-2.113613672 1.561389658 -1.260930846
-2.161602112 1.607363644 -1.266813248
-1.809538001 1.778850581 -1.565425295
-1.854067034 2.001725713 -1.489774298
-1.731335119 2.386408191 -0.9770356002
-1.255359535 2.346580739 -1.14703286
-1.062232404 2.658430823 -0.9346660574
-1.285776008 2.543689695 -0.8374042853
-0.9871919561 2.485735308 -0.5028244121
-0.810364257 2.855428297 -0.760494106
-0.5512856897 2.997111181 -0.6992157393
-0.4684096089 3.010537471 -0.2070441397
-0.4923597786 3.158281724 -0.2702111535
-0.374882025 2.795166955 -0.2768941326
-0.108624647 2.998202902 0.1243755989
-0.156637049 -2.753674103 -0.1692390341
-0.1142579707 -2.777886126 0.02868588234
-0.2531138723 -2.861717828 -0.4573318307
-0.7336718497 -2.964366206 -0.6151435399
-0.7185826978 -3.016607524 -0.3351092291
-0.6130872791 -2.651377751 -0.5669215848
-1.127643122 -2.954712273 -0.7241269408
-1.030249 -2.698324827 -0.9378225987
-1.247889988 -2.653796532 -1.13546835
-1.418025202 -2.350034208 -0.927715173
-1.485714974 -2.151666768 -1.109308547
-1.8182716 -2.04475801 -1.372503073
-1.700597814 -2.195373734 -1.254251519
-1.613358432 -2.046092038 -1.687338176
-2.093215695 -1.481270193 -1.573202013
-2.178356506 -1.280761482 -1.765746103
-2.110027168 -1.302591736 -1.743410425
-2.163164157 -1.161100538 -1.844501003
-2.000874207 -0.8437506023 -1.64205738
-2.220550256 -0.5032872221 -1.98749804
-2.129534901 -0.5447837083 -2.14895989
-2.461913477 -0.4531911121 -1.699918261
-2.048144819 0.1311151318 -2.124298747
-2.092805219 0.3359056412 -2.007327324
-2.27360269 0.5078241854 -2.146709638
-2.244843324 0.7538935853 -2.040181009
-2.233147495 0.8614627351 -1.732467899
-1.921008536 1.222530313 -1.746019812
-2.048635269 1.297838386 -1.731511207
-2.237341898 1.536895157 -1.584315139
-1.927072601 1.807116255 -1.536023642
-1.908418178 1.557680177 -1.764153149
-1.810914154 1.945634865 -1.623923827
-1.780361508 1.986426023 -1.223301763
-1.369313359 2.208718216 -1.426626907
-1.571765786 2.195188379 -1.209985151
-1.469693465 2.440578117 -0.8117850347
-1.097625761 2.794359297 -1.109532959
-1.070639696 2.952169208 -0.8592949212
-0.7289122144 3.048912565 -0.6484998558
-0.7447860042 2.894453149 -0.7659639906
-0.6823184396 2.685026151 -0.2177979823
-0.2414182587 2.868629209 -0.4138539345
-0.07240865402 3.202122376 -0.2379982836
-0.08922044531 3.177120363 0.1966879079
0.2070182834 -3.103422896 -0.1898437162
-0.1839525554 -3.094473911 0.04326425111
-0.5388007111 -2.902524091 -0.09348989803
-0.2203848354 -2.856375298 -0.2180192945
-0.8201545923 -2.948839748 -0.8327662878
-0.5135585934 -2.609485936 -0.9642483745
-1.137407332 -2.795411239 -0.9864455646
-0.8607624724 -2.802794767 -0.8534182291
-1.139483523 -2.585064712 -1.303822127
-1.044407178 -2.342630663 -1.279188626
-1.477638391 -2.064384608 -1.204117567
-1.370357258 -2.063221108 -1.279614642
-1.731283058 -1.862729134 -1.622739432
-1.677584125 -1.5487565 -1.426045632
-1.809131937 -1.584990726 -1.55449054
-1.651230431 -1.298443059 -2.046468941
-2.051683627 -1.047963869 -1.761474186
-1.900839148 -0.9644309238 -1.994947983
-2.118983792 -0.6907314267 -2.102669331
-2.016285958 -0.524591607 -1.864071754
-2.22611108 -0.3059998814 -2.259518301
-2.333490151 -0.2553495295 -2.301052494
-1.93417024 0.2009479053 -2.309508263
-1.983365154 0.2184546366 -1.977683938
-1.94258829 0.4654317583 -2.2545997
-2.357412589 0.6361566348 -1.811733683
-2.034293516 0.7816672395 -2.234098468
-1.814465975 0.9619708694 -1.850191207
-1.865884893 1.12318662 -2.113761686
-1.951548098 1.346312467 -1.728932971
-1.655550197 1.483145161 -1.73903589
-1.957279355 1.654960911 -1.537427219
-1.484223084 2.102784434 -1.753769341
-1.500432788 2.082674551 -1.227849785
-1.336167234 2.484849769 -1.542038318
-1.317816194 2.537427523 -1.314950878
-1.100459125 2.529611684 -0.8807173034
-1.197292341 2.850711317 -1.047957484
-0.9124771743 2.743196928 -0.9830312733
-0.5223217582 3.016592778 -0.4918221025
-0.3595245375 2.963378969 -0.6112808886
-0.2833530681 2.693343037 -0.2757787506
-0.3084751699 3.05607434 -0.3595575502
-0.2196397645 2.75821492 -0.1867743671
-0.04582290229 2.862395551 -0.1263383632
0.04206979022 -3.091114279 0.1651259545
-0.3375131393 -2.953533871 -0.3290236709
-0.2715613286 -2.943191383 -0.2461327637
-0.4629893497 -2.926703255 -0.633424077
-0.5840399549 -2.941963726 -0.5450387231
-0.7341006735 -2.67117835 -0.816111441
-0.9660151121 -2.842051627 -1.153497939
-0.9420810899 -2.467596527 -0.9338983606
-1.116383221 -2.67570042 -1.023581056
-1.424594568 -2.45201236 -1.15774272
-1.367973736 -2.458310988 -1.576994348
-1.369425647 -2.29530239 -1.498980573
-1.548004547 -2.047387452 -1.814431417
-1.445334945 -1.849496026 -1.665514609
-1.718547864 -1.825988859 -1.905266642
-1.758001733 -1.458825863 -1.798606943
-1.620562151 -1.102855701 -1.98657398
-1.860100233 -0.9760845239 -2.194952872
-1.770154923 -0.6667735817 -2.255518133
-1.760107521 -0.4633295067 -2.216241528
-1.782459364 -0.6167250179 -2.442748768
-2.078343802 -0.1812997002 -2.298032826
-1.786357952 -0.1226448855 -2.338827779
-1.934863409 -0.03405050923 -2.109975607
-2.048224723 0.6658184486 -2.111033251
-2.185409147 0.4340097731 -2.384400859
-1.699767216 0.9372234411 -2.175323711
-2.030583868 1.235212412 -2.238090056
-1.722648218 1.37790722 -2.130636887
-1.759388254 1.299241601 -2.01726297
-1.456158261 1.718491469 -1.702212527
-1.586700152 1.667352871 -1.678314314
-1.516801533 1.803006636 -1.728679212
-1.352020258 2.238986272 -1.704837838
-1.12656341 2.207024277 -1.574400739
-1.355425057 2.55370939 -1.408968004
-1.09357844 2.38517051 -1.112277742
-0.8215237914 2.552749593 -0.8459145213
-1.068595394 2.545367538 -0.8817470362
-0.6008081042 2.68619067 -0.7520719419
-0.6563545063 2.905523544 -0.5484404365
-0.1902977965 2.909289028 -0.3997923649
-0.2466620181 2.878241773 -0.4407495412
0.1007296682 2.845782525 -0.01390840096
-0.1767063045 3.152175635 -0.1571357785
0.233578322 -2.907006172 -0.2049408782
-0.03517380057 -2.940545963 -0.2498750072
-0.382485291 -2.860083935 -0.2157561824
-0.4790018548 -2.743327043 -0.6180975926
-0.7354234318 -2.828544999 -0.8624895669
-0.7571228651 -2.807255978 -0.9329647834
-0.9097668881 -2.627303279 -0.9585548217
-0.7152847905 -2.592417172 -1.14123646
-1.117926994 -2.37772766 -1.42965683
-1.235742312 -2.230829425 -1.296115474
-1.153080833 -2.497788458 -1.734483092
-1.306036482 -1.998150882 -1.689572811
-1.637211182 -2.122447203 -1.742233025
-1.381478674 -2.031118844 -2.120839443
-1.673127115 -1.830171604 -1.967777375
-1.809208434 -1.363637293 -1.936248786
-1.444817797 -1.022041558 -2.263716807
-1.965826749 -1.133686431 -2.110739318
-1.992267974 -0.9153413417 -2.36925507
-1.945102225 -0.5346304913 -2.230458212
-1.810437741 -0.221557195 -2.538400395
-2.017433909 -0.27229271 -2.280067952
-1.80494478 -0.2129786563 -2.134819859
-1.939746113 0.1435038565 -2.296194078
-1.605602029 0.5082886344 -2.112583156
-1.960979484 0.6971008332 -2.145567269
-1.767656345 0.7762845084 -2.025893079
-1.91003788 1.003857303 -2.028292501
-1.479835756 1.48643609 -1.957975586
-1.845580912 1.65263021 -2.11077785
-1.477972579 1.569060387 -1.831916453
-1.440627566 1.970605321 -2.045619584
-1.553366147 1.934770603 -2.034240603
-1.209588735 2.019347208 -1.64297357
-1.424515797 2.102570903 -1.486682316
-1.204025203 2.258984694 -1.552288487
-1.141145488 2.585186073 -1.444246727
-0.953812235 2.726980402 -1.126124537
-0.7186246239 2.604349476 -0.7656970558
-0.688515273 2.704331143 -0.6239815026
-0.4427108372 2.935451853 -0.4726575272
-0.6133346362 3.100280354 -0.4135790198
-0.3328568925 2.847639997 -0.534033919
0.08877472482 2.813312396 -0.2889288626
0.09555358978 3.105076219 -0.1696156477
0.1570655804 -2.994856365 0.1742283391
-0.3260344001 -3.220941344 -0.1089333991
-0.4137324443 -2.956989803 -0.5968986646
-0.216630374 -2.731675513 -0.359232454
-0.2434521328 -2.676931044 -0.728691616
-0.6370795635 -2.612757341 -0.6556874077
-0.4604734076 -2.594737369 -1.182189547
-0.581500829 -2.409466236 -1.108880568
-0.7283273921 -2.493172387 -1.12257118
-1.208367257 -2.219641875 -1.712719291
-1.1790269 -2.449585902 -1.639144914
-1.320104203 -1.895284154 -1.728993601
-1.068964028 -2.075552967 -2.116645598
-1.205143441 -1.69664417 -1.968290478
-1.253597652 -1.451880266 -2.048340706
-1.239411691 -1.327890986 -2.094448889
-1.595268374 -1.49511575 -2.391885967
-1.439846658 -0.9434569118 -2.414788505
-1.546833498 -0.9975539308 -2.504553317
-1.415536732 -0.6811055822 -2.5577806
-1.666949255 -0.4834365749 -2.347032977
-1.442246379 -0.1681488374 -2.435202247
-1.745161781 0.03231546599 -2.577448285
-1.922758395 0.397065636 -2.516053797
-1.664459135 0.2186949725 -2.293242239
-1.804072244 0.5930064481 -2.260141623
-1.630733515 1.060773838 -2.531710025
-1.464190496 1.287391801 -2.305492758
-1.429887321 1.192858369 -2.136688634
-1.267938559 1.539274744 -1.964922221
-1.366942691 1.660491172 -2.189978666
-1.238157197 1.988809261 -1.917878188
-1.401309786 1.986636759 -1.75166567
-0.9665456246 1.949618369 -1.944905723
-1.142108661 2.080054308 -1.388498004
-1.043183271 2.418428983 -1.626927215
-0.9324044635 2.766107565 -1.350291077
-1.049565934 2.504300734 -0.9527188348
-0.4523576251 2.584142531 -0.9755519181
-0.7977995024 2.849569996 -1.056196455
-0.3132977776 3.098266415 -0.8642072211
-0.37523892 2.732462097 -0.6091038315
-0.4561954655 2.85173759 -0.1088412107
-0.3473754613 3.171840509 -0.3887023009
0.01449846556 2.976059896 0.21577733
-0.1504750689 -3.160158992 0.1243570443
0.00585096175 -2.892765459 -0.4222810767
-0.333492414 -2.799516737 -0.3193157351
-0.2677504739 -3.033482295 -0.6721742778
-0.1993213913 -2.764601282 -0.918529595
-0.3053427983 -2.769664099 -0.9912533882
-0.6745527963 -2.616193731 -1.141143537
-0.6795010805 -2.527787221 -1.397437893
-0.5888404831 -2.595674212 -1.444938668
-0.7996593159 -2.347231178 -1.586909131
-0.9074200807 -2.065834569 -1.551236287
-0.898530667 -2.24211614 -1.877415632
-1.106714791 -2.192486792 -1.828598901
-1.289080149 -1.906534961 -2.200221149
-1.370190666 -1.702915036 -2.133228512
-1.274735823 -1.559891083 -2.427064766
-1.201268898 -1.44988337 -2.356881827
-1.39514415 -1.011324136 -2.241441734
-1.37728249 -0.6083807874 -2.307159328
-1.608350169 -0.7671042136 -2.616314959
-1.538974955 -0.4004469546 -2.705375226
-1.635005581 -0.2733225709 -2.505445054
-1.405937193 0.23805837 -2.746868494
-1.549748596 0.4463562986 -2.49645224
-1.438592901 0.4467675405 -2.783876352
-1.269033395 0.7004484764 -2.502868323
-1.419489288 0.7911547742 -2.615503524
-1.277763594 1.053176298 -2.667297026
-1.414900743 1.460546858 -2.426345967
-1.35990198 1.499727522 -2.129439502
-1.17764974 1.796949818 -2.378655497
-0.9885155843 1.999793966 -2.070292861
-1.071253243 1.820988727 -1.989521272
-1.209308492 1.882308683 -1.596665773
-1.102717843 2.313802877 -1.801252903
-0.9636056897 2.350504502 -1.639445683
-0.7422613465 2.754228733 -1.440308722
-0.4822101181 2.716935588 -1.191557294
-0.7545705936 2.510356339 -0.9033124779
-0.4872057374 2.768056106 -0.7519509107
-0.517308644 3.020287549 -0.8179807362
-0.1084073411 2.815424035 -0.7334837633
-0.1144239032 2.800887953 -0.1450632707
-0.02923121861 2.857786675 -0.3309351677
0.2119375196 3.053928956 0.1968680033
-0.1948873976 -2.787303902 0.010024656
-0.009608160484 -3.055918608 -0.4127875384
0.04182606407 -2.722165161 -0.4514617636
-0.05761350432 -3.097577453 -0.7458150253
-0.5839543521 -2.932844217 -0.9835075091
-0.5122564447 -2.991653961 -0.8270250743
-0.3796365422 -2.634988272 -1.269870545
-0.4968426872 -2.75828687 -1.16249411
-0.677305218 -2.59040434 -1.666028055
-0.6243633588 -2.181797263 -1.532922706
-0.6289453695 -2.050193013 -1.918450586
-0.8143194574 -2.196667934 -1.912871415
-1.165413707 -1.727192488 -1.924720962
-1.169348391 -1.862097155 -2.19732364
-0.9825769659 -1.409073819 -2.357620934
-1.167997392 -1.391143174 -2.419885955
-1.194178601 -1.443391224 -2.618878271
-1.281644547 -0.8409230331 -2.601695481
-1.386945702 -0.7237665601 -2.362594633
-1.305497168 -0.8833933909 -2.54068669
-1.344197081 -0.3401217465 -2.780078599
-1.56055861 -0.2917694402 -2.587115895
-1.368556798 -0.1404129302 -2.714378707
-1.18558842 0.023734093 -2.593636049
-1.21805547 0.3623134546 -2.433768761
-1.087706327 0.5457766091 -2.869215809
-1.357689703 0.6975586418 -2.563533759
-1.022822965 1.233561294 -2.623459926
-1.231970496 1.014516139 -2.430633711
-1.372563446 1.657050043 -2.183091034
-1.249250015 1.721606792 -2.234330809
-0.9021236897 1.785659053 -2.312679118
-0.9239747227 1.754722365 -1.995495658
-1.073573229 2.213788563 -1.742608514
-1.056453788 2.217382999 -1.648993992
-0.9562665829 2.434885558 -1.529962105
-0.7836072018 2.689751735 -1.452445151
-0.5667693637 2.453473367 -1.530658321
-0.7709435815 2.93085606 -0.9287964289
-0.3057893199 2.660655221 -0.9295596461
-0.2224517218 2.965813512 -0.9518980374
-0.08177686929 2.761781794 -0.7372594034
0.01334415799 2.961772796 -0.447289275
-0.0669907475 3.23305501 -0.3825424718
0.1284744244 2.917162931 -0.1914753646
-0.03903332232 -2.975623561 -0.1470191811
-0.1275376556 -2.924518331 -0.1602096067
-0.04835593327 -2.80126206 -0.441285895
-0.2774014393 -2.933094531 -0.5580846243
-0.512455283 -2.972161244 -0.9477077363
-0.4498083763 -2.574172139 -0.9306871569
-0.5021608486 -2.695927538 -1.070960001
-0.5711127593 -2.659182067 -1.232355203
-0.8271515531 -2.503720314 -1.480156405
-0.5451039649 -2.160301347 -1.519044337
-0.7340511398 -2.432522133 -1.777398413
-0.627511144 -1.905113312 -1.804198783
-1.004842017 -1.85829427 -1.912078936
-0.8091555982 -1.70495698 -2.226665597
-0.8769292493 -1.724732092 -2.545585037
-0.8224955568 -1.216174806 -2.262898198
-1.105305652 -1.449479963 -2.640119105
-0.8815449461 -0.9704852852 -2.372826851
-1.156956674 -0.8194616104 -2.52386007
-1.231141005 -0.4056508814 -2.671785557
-1.358432133 -0.664367877 -2.562131371
-1.048315652 -0.08248129007 -2.632456489
-1.163589892 0.1493056231 -2.562785342
-1.284870862 0.3460857494 -2.870568485
-1.201634413 0.3833219403 -2.571379619
-1.337108942 0.6046589721 -2.627960568
-1.273089454 0.991324469 -2.447927882
-1.257495223 0.8748666079 -2.369125361
-1.173334609 1.035714877 -2.304092031
-0.7900416543 1.515609696 -2.415593902
-0.7358010122 1.69968249 -2.26079175
-0.7278212994 1.874455839 -2.224908296
-0.9044655717 1.966149148 -2.090917085
-0.8642446468 2.095379548 -1.815918007
-0.7776887618 2.030028606 -1.930019238
-0.8076091635 2.548414729 -1.692275201
-0.7174275732 2.67911304 -1.744211909
-0.7014640695 2.796514379 -1.307729904
-0.3300267213 2.897983993 -0.9345165347
-0.6110224578 2.960466547 -0.8676695611
-0.4631038198 3.094330054 -0.8315526938
-0.04507981327 2.98399745 -0.5778873402
-0.3301742634 3.176628138 -0.3675251072
-0.3271261824 2.751498615 -0.05961731409
-0.1690318233 3.049369218 0.09054098097
-0.1103172035 -2.965343096 -0.129870627
0.1570226538 -2.812271266 -0.3095213894
-0.1175258652 -2.969147897 -0.1760367339
-0.2500444706 -2.900326821 -0.3921315139
-0.4297749182 -2.853236119 -1.000994292
-0.2652216454 -2.878007573 -0.7632625191
-0.4274063056 -2.910802167 -1.018249485
-0.2838548986 -2.535607159 -1.242972714
-0.6188439925 -2.452733848 -1.773529981
-0.707115878 -2.185483999 -1.59022314
-0.7417530167 -2.461557178 -1.643968983
-0.8494302037 -2.24278532 -2.17617854
-0.9468864757 -2.057514815 -1.919192236
-0.8211908915 -1.79568056 -2.161111999
-0.7543448637 -1.500126698 -2.319421029
-0.7593716586 -1.362922506 -2.354584786
-0.7381795382 -1.100357579 -2.772535491
-0.7797632973 -0.9298815828 -2.773293208
-0.7022102406 -0.9428418688 -2.865680075
-0.7223165551 -0.7641859496 -2.830214452
-0.9836535258 -0.2279136035 -2.846510528
-0.8275344969 -0.06699809728 -2.78194821
-0.7052037339 0.1512537646 -2.903066235
-0.6992830419 0.2263049662 -3.084611339
-1.037608301 0.4878093083 -2.995720946
-0.8638309404 0.5684948799 -2.770772943
-1.138561481 1.019408348 -2.806633391
-1.048520947 1.017350468 -2.680187777
-0.7745738804 1.258526259 -2.823572519
-0.6278970091 1.416001426 -2.715673081
-0.6434707964 1.701999661 -2.325520077
-0.7786855435 1.753081531 -2.265910573
-0.9253211795 1.864061084 -1.912334585
-0.5744277921 2.080787427 -2.156313985
-0.4844846062 2.147393878 -2.037243653
-0.7283034998 2.516255363 -1.638435662
-0.7162985516 2.331282006 -1.475616483
-0.4087301934 2.726036499 -1.528359161
-0.2718169431 2.94694422 -1.134724308
-0.4759061015 2.900621103 -1.075539714
-0.4865365706 2.779648269 -0.6010382011
-0.2414892006 3.113773267 -0.6021551395
-0.1234441162 2.722072487 -0.3374963263
-0.2622281374 2.981730551 -0.3233843573
-0.05380851709 3.018538678 -0.2427679427
-0.1077082084 -2.755194033 -0.2213004371
-0.1420787872 -3.081645607 -0.2679673532
-0.01089676708 -3.095592427 -0.434127766
-0.08184080997 -3.020279569 -0.3943672857
0.03536449487 -3.068642137 -0.8981817454
-0.3996430754 -2.967454377 -1.021760881
-0.2695804081 -2.766069966 -1.322948798
-0.4585116829 -2.386972891 -1.183201044
-0.6044291337 -2.445485272 -1.59530562
-0.3405281186 -2.35314337 -1.549803476
-0.6917812932 -2.342449767 -1.663478651
-0.6720511642 -2.307653624 -1.94382206
-0.4097795289 -1.878445428 -2.061803832
-0.4841445775 -1.979947659 -2.276174285
-0.4721146067 -1.439164149 -2.575676502
-0.8232739142 -1.297201738 -2.676550345
-0.8942149506 -1.083638257 -2.644840546
-0.7666893945 -1.292677986 -2.95969122
-0.5500554417 -0.850344728 -2.96811477
-0.7799268527 -0.8050432949 -3.037923507
-0.8302245283 -0.4021902411 -3.026255241
-0.8020809784 -0.2250521076 -2.943455702
-0.9114517872 -0.2305671822 -3.143157816
-0.79882701 0.3234185889 -3.087842923
-0.5748883804 0.5347816695 -3.1292868
-0.9458057298 0.4852124765 -3.066303828
-0.6806955244 0.6150113012 -2.641652876
-0.6835249262 1.162369722 -2.602003667
-0.65679772 1.458926477 -2.402715726
-0.7073819517 1.25067903 -2.623205429
-0.7488759995 1.637425286 -2.509600322
-0.5907806564 1.929426788 -2.443274747
-0.5297597466 1.882162827 -2.057421314
-0.4434255225 1.875572709 -1.978282392
-0.6401944463 2.379485618 -1.872556381
-0.4841938283 2.498656938 -1.566133033
-0.2530066973 2.546450236 -1.462397264
-0.3908651928 2.77755003 -1.230513785
-0.4828470438 2.597911666 -1.324231866
-0.4205882508 2.757116678 -1.170734194
-0.1567021671 2.679286642 -0.9351321111
-0.07151227043 2.88071316 -0.6580222051
0.04567540018 3.211720103 -0.3817285465
-0.2622419456 2.793807831 0.02659004731
0.08961745637 3.126234559 0.08788187884
-0.1601911992 -3.02581892 0.1490402188
0.146017724 -3.123688587 -0.1627852467
-0.2455871856 -2.740325889 -0.5443561238
0.002582838802 -3.065884126 -0.5699808641
-0.06713488179 -2.964264869 -0.6729402861
0.01063399532 -2.63331421 -1.11706599
-0.09423805039 -2.699150609 -1.180997615
-0.260949597 -2.582906395 -1.598077274
-0.3272202616 -2.684924717 -1.707229041
-0.4982831561 -2.54537592 -1.629555249
-0.3162278881 -2.505427164 -1.790473542
-0.1636292139 -1.931105706 -1.92758428
-0.1475953877 -1.921381224 -2.001510306
-0.1926154666 -1.891213635 -2.183420784
-0.292010096 -1.484023063 -2.287278618
-0.5151270663 -1.487719477 -2.523009066
-0.3549655461 -1.056376488 -2.499515264
-0.3774290247 -0.8199461501 -2.928831751
-0.2746726955 -1.063101929 -2.806937417
-0.7139408393 -0.6036953811 -2.941850572
-0.724837353 -0.3528861123 -2.80875249
-0.6825245192 -0.1167991899 -3.107371952
-0.7022463083 -0.1763183667 -2.904884025
-0.3802218219 0.2624644003 -2.79222
-0.4699033983 0.5756051385 -2.686090239
-0.5635594138 0.4626669572 -3.069207022
-0.4511038208 0.8687492034 -2.992630669
-0.2970463556 1.276766723 -2.891538238
-0.6204263495 1.103205965 -2.743727159
-0.2806084837 1.485727265 -2.809258505
-0.4517568862 1.417088294 -2.532311947
-0.4652775117 1.872009333 -2.340410679
-0.2063262179 1.722719793 -2.095804709
-0.6070342414 2.023465258 -1.899261152
-0.2459390334 2.103247062 -1.939343512
-0.2012383336 2.620295384 -1.703359277
-0.5193061725 2.523611528 -1.770800986
-0.4757723644 2.682292286 -1.277443402
-0.4483779022 2.870690621 -1.124117837
-0.05605800972 2.683213361 -1.085667372
-0.3368916217 2.747924396 -0.9309623831
-0.2010164057 2.768960542 -0.7836519365
0.1265970629 3.111411133 -0.4982194166
0.1866580123 2.8618177 -0.2573559154
0.1567626557 2.971443185 -0.1326873385
-0.06573226619 -2.999639464 0.06032219183
-0.06956767578 -3.026704178 -0.3308733327
-0.02695420482 -3.109736209 -0.240842559
0.05702616595 -2.976301104 -0.5105885805
-0.3348492428 -2.95623431 -0.8704170152
-0.1246876072 -2.686483436 -0.8112456212
-0.1902695136 -2.803596061 -1.184160365
-0.2596586732 -2.812361802 -1.199100397
-0.0147720831 -2.294510821 -1.754120952
-0.4290201132 -2.432992935 -1.571179801
-0.3861920891 -2.458655962 -2.169343623
-0.08922935613 -1.978357077 -2.012011501
-0.4603461023 -1.852938034 -2.280514093
-0.4220908261 -1.900269995 -2.387893957
-0.3489790809 -1.387047839 -2.522564303
-0.339152053 -1.351164246 -2.543340389
-0.5340276636 -1.18700819 -2.842062321
-0.3561969239 -0.9452180936 -2.766757938
-0.366555406 -1.011492495 -2.859969218
-0.3967359691 -0.4312319645 -2.89820854
-0.1274115456 -0.4818540006 -2.789478707
-0.5345179591 -0.3149580368 -3.186875936
-0.5477602994 0.2094311227 -2.875131314
-0.250231378 0.2302639543 -2.941186885
-0.241048352 0.5902344122 -2.904753011
-0.1821285993 0.5281848946 -2.677000991
-0.5349343739 0.7884859681 -2.671685536
-0.4535522634 0.8690615855 -2.862735666
-0.3211499535 1.462942069 -2.545887041
-0.2931824893 1.67423451 -2.547473715
-0.07697545101 1.494950942 -2.515453137
-0.4861794304 1.552273097 -2.285740767
-0.4278452137 1.988486321 -2.156824756
-0.4556210625 2.095691044 -2.017623561
-0.01048926457 2.166863773 -1.71671175
-0.01565397087 2.476941259 -1.842021528
-0.0639818734 2.681857233 -1.711387454
0.09612955215 2.837346654 -1.437120112
-0.01885312091 2.740900433 -1.108952702
0.05390424094 2.572460453 -1.25308332
-0.1701135057 3.087285737 -0.8914307977
0.1270987384 2.912657554 -0.7397760438
0.1556947375 2.99979971 -0.4943635206
-0.2501674238 2.79782291 -0.3931899753
-0.06758185479 3.053666478 -0.09620494279
-0.2172361831 -3.117595631 -0.04565917455
0.2386658596 -3.045862892 -0.4192894665
0.02565725855 -2.75964429 -0.2833365824
0.1458538897 -2.7173247 -0.5690356499
0.217964392 -3.111838136 -0.6772629608
0.1419169628 -2.60249898 -1.058669157
0.1003846372 -2.881355786 -1.193920747
-0.1208540691 -2.584950144 -1.34909087
-0.1330699439 -2.665641448 -1.710090467
0.01923515571 -2.313186606 -1.67607934
-0.2552946258 -2.107990028 -1.86931153
-0.308780474 -2.203521419 -2.136672465
-0.1488170941 -2.155873758 -2.412194434
-0.3215347617 -2.001294419 -2.517010659
0.07190715813 -1.608603697 -2.559974247
-0.01081019303 -1.41699168 -2.815676031
-0.2339254146 -1.384983859 -2.67725736
-0.1172850384 -1.104600008 -2.780817296
0.1346004273 -0.9381009425 -2.866627712
-0.1121207937 -0.5293743528 -2.81450971
0.01090255031 -0.5761847248 -2.99310884
0.05115561511 -0.2732524643 -2.748405922
-0.1723051192 -0.001166586329 -3.010909684
-0.1375998292 0.3868332338 -3.162895862
-0.06980045719 0.4862453035 -2.792044754
-0.04770572154 0.8677060426 -2.743570988
-0.1760874914 1.025150893 -2.647486522
-0.219498631 1.103496942 -2.918234926
-0.02045345693 1.043066441 -2.610139605
-0.1319817507 1.481400549 -2.868501793
0.009642752915 1.619918129 -2.459597688
-0.175981473 1.620743087 -2.432446247
0.1428637213 1.828479215 -2.17794807
-0.2991112403 2.230370237 -2.2508095
-0.09280439996 2.201125273 -2.156965259
-0.1399524906 2.326686202 -1.785684988
0.1795714892 2.508769359 -1.413721343
-0.06939781602 2.436808619 -1.571794676
-0.0897344866 2.641580372 -1.062571216
0.05273442915 2.850003401 -1.05213911
-0.08086166418 2.934575141 -1.032379216
-0.1909886708 2.832998775 -0.8017150934
0.07364921082 2.731848487 -0.596595686
0.19383495 3.241127918 -0.220091937
-0.002314963489 3.136699381 -0.2319052112
-0.03648925905 -3.200086059 -0.04953680867
0.2493800253 -2.865539704 0.02863576194
0.1379244615 -2.91540929 -0.2995740153
0.1018011014 -2.949407583 -0.7410342346
0.03958600299 -2.999232184 -0.8513446257
-0.1403439251 -2.778151626 -1.175112041
-0.0597026234 -2.729381915 -1.414222733
0.2813665871 -2.659564811 -1.510731509
-0.1787974202 -2.352133416 -1.558017463
0.02094604426 -2.528857323 -1.674169099
0.2913002179 -2.32684387 -2.145947397
-0.121369614 -2.368139358 -1.998050373
0.3198235323 -1.718173326 -2.123768949
-0.08509265166 -1.558978272 -2.486253996
0.004887779436 -1.528253976 -2.747698598
0.25477653 -1.189098322 -2.493898105
0.2360753421 -1.301088204 -2.944272921
0.2444309386 -0.9998134955 -2.604467537
-0.09156108432 -0.942636139 -2.946397352
0.1939456558 -0.4938232871 -2.69914464
0.001336389562 -0.4301263105 -3.203174943
-0.01907433055 -0.2770157955 -2.943630378
0.0901212369 -0.06776247011 -2.936133498
0.268739569 0.08485811609 -3.069095541
0.2060946352 0.5659148142 -2.804956972
-0.04302858905 0.6573293493 -2.729649295
0.04643269315 0.8101392156 -2.634313957
-0.09537645547 1.151193534 -2.634044818
-0.07936614521 1.353471657 -2.742364505
0.2683371073 1.641473118 -2.445190542
-0.1297294565 1.75035009 -2.311459405
0.1444896795 1.84827103 -2.627658024
0.2571423504 1.737783982 -2.359112773
0.286964545 2.346192915 -1.874077823
0.05676407288 2.105963496 -1.969413188
-0.1361000706 2.587891777 -1.766469191
0.008857226863 2.313525949 -1.668314083
0.2332724495 2.734739935 -1.645643365
-0.1265530755 2.675050231 -1.444798319
0.2536089679 2.886995197 -1.250342385
0.1735257045 2.812681885 -0.9722474766
0.05724773584 2.688126665 -0.6546085715
0.1868026452 3.183493124 -0.5054070796
0.07868739885 2.855768063 -0.1837806404
-0.1229861369 3.035678254 -0.1641389414
0.2206162784 -2.806541262 -0.08154087528
0.16070237 -3.194604279 -0.09266468475
-0.06414258116 -3.151643442 -0.3355100591
0.05156077809 -2.916370797 -0.6239376119
-0.1319287953 -3.102788796 -0.7899838373
0.1715191822 -3.037261897 -1.103429669
0.1866937186 -2.650555658 -1.075280098
0.1106516221 -2.608908078 -1.390590644
0.07555970315 -2.746847897 -1.860924428
0.3559874288 -2.551507812 -1.72285695
0.2438784978 -2.317432185 -1.787073361
0.3209391534 -2.359949612 -1.971352492
0.2404914339 -2.041072557 -2.141386169
0.3440708519 -1.892538881 -2.146947941
0.3381590604 -1.569032596 -2.724994992
0.1648866983 -1.464259959 -2.553300065
0.2916291192 -1.114728572 -2.832662952
0.3948922423 -0.8900940156 -2.662926061
0.4363062704 -0.6509441419 -3.070621041
0.4050147666 -0.4033567681 -2.878556535
0.1690516987 -0.1775676119 -3.115858643
0.2305652589 -0.3779864554 -2.993707469
0.2730233946 -0.004379551745 -2.769573986
0.3019486031 0.2213307127 -2.78262285
0.4692725397 0.2968055304 -3.196734311
0.371168777 0.8101207806 -2.888956804
0.1564714381 0.9658752158 -2.777940671
0.3263300134 1.230060626 -2.653329873
0.3692233495 1.328624374 -2.632845491
0.2878096806 1.419707782 -2.513812687
0.3190520577 1.616912733 -2.696604497
0.3520024314 1.870832285 -2.467343164
0.165153608 1.837943394 -2.023870869
0.401839037 2.151844859 -2.158872956
0.3237673903 2.281112811 -1.715894498
-0.03451397234 2.16876659 -1.753678773
0.02117667284 2.57591268 -1.472325877
-0.03065963911 2.603341081 -1.33553729
0.2971998641 2.727068031 -1.386341185
0.1524864888 2.788107709 -0.9066866215
0.1161352458 2.768190343 -0.7133711294
0.07553087566 2.770213874 -0.6026663424
0.268787884 3.072222456 -0.5252039874
0.1278075132 2.8836595 -0.1915007203
0.01329788189 2.873695439 -0.07605940006
0.2210907274 -3.124700732 0.1505135218
0.1208490475 -2.976041778 -0.3920087074
-0.07357648669 -3.129975514 -0.3770611388
0.3474263239 -2.742820967 -0.865381894
0.03363034753 -3.049850192 -0.5945182979
0.0498565711 -2.960192582 -0.9720274532
0.2445014717 -2.865970244 -1.142129345
0.04816574525 -2.873352436 -1.624696958
0.2140779912 -2.286252434 -1.573658307
0.4395534756 -2.490875847 -1.660850344
0.5742367183 -2.338368278 -1.685206067
0.4375683874 -1.997024638 -2.213009102
0.4652489937 -1.959079076 -2.004602797
0.6193751068 -1.849496701 -2.141702786
0.6306527052 -1.576730527 -2.69436005
0.2876171916 -1.649309838 -2.789038664
0.7123440022 -1.390161389 -2.592010633
0.5563629657 -0.9828201066 -2.91479406
0.5395159163 -0.7824284957 -2.7995457
0.3521205514 -0.5261655702 -3.100283847
0.5612420747 -0.4588148486 -3.049208193
0.6733117205 -0.3760712663 -2.730404847
0.7132270472 -0.06970622642 -3.051846794
0.3383605677 0.4221814576 -2.883129798
0.2815338599 0.4324442221 -3.131452016
0.5459146603 0.6421767279 -3.095482405
0.6577729157 0.7263562591 -2.814006176
0.5576182752 1.279544806 -2.771240214
0.6825257011 1.17367371 -2.508719323
0.3251351848 1.541486841 -2.798729224
0.6812716071 1.848890652 -2.514312185
0.4290051919 1.846720431 -2.477618882
0.4809393267 2.063863175 -2.220265874
0.1922337581 2.330913316 -2.28157018
0.4057322036 2.068793021 -2.111685429
0.07245958111 2.333305765 -1.700728595
0.2924159881 2.611030174 -1.509772376
0.0697490116 2.411705671 -1.353225283
0.2930203324 2.757247854 -1.354430544
0.3374340623 2.598692183 -0.9663092053
-0.04302719676 2.955702779 -0.8734943249
0.2197862532 2.707536699 -0.6004663413
-0.1034229136 3.060655142 -0.6104804526
-0.176044581 3.098917743 -0.4290001748
-0.137734591 3.162367599 0.1548441539
0.1770628789 -3.086950055 0.01402401438
0.1884492076 -3.173863586 -0.09546487409
-0.097969599 -2.762839022 -0.3456073468
0.1509252497 -2.939075971 -0.7780725521
0.1274305088 -2.764917088 -0.7996198772
0.2682822124 -2.963226228 -0.922069644
0.2475109127 -2.887519317 -0.9873338592
0.3512218434 -2.619018645 -1.154353776
0.3255816228 -2.302250256 -1.476281743
0.5014829836 -2.534414572 -1.96855184
0.4441673694 -2.512163242 -2.120724459
0.5608572165 -2.009084427 -2.224333897
0.6647473152 -1.739719289 -2.078313706
0.7233629733 -1.69747671 -2.467916514
0.5409979191 -1.397288971 -2.368188834
0.7815016617 -1.203399651 -2.689106058
0.5710230235 -1.173844213 -2.885657376
0.7156154994 -0.8940483492 -2.672133255
0.5940637189 -0.7331456288 -2.969959983
0.9065664009 -0.8372383532 -2.662618717
0.7172831525 -0.4626210131 -2.880927665
0.5740196705 -0.2351747598 -2.728610664
0.8762433079 -0.1684757328 -2.82417669
0.9023351515 0.3739013439 -2.94065435
0.4924248588 0.6425292263 -2.933315987
0.6396679849 0.7674533409 -2.962378176
0.8637410386 0.6332234509 -2.672620195
0.9129007059 1.296276937 -2.515452762
0.8455608925 1.135685151 -2.414511932
0.8509375916 1.454933214 -2.603785691
0.4151865748 1.667239491 -2.348521149
0.5330036551 1.75084778 -2.293629539
0.3123891569 2.19351515 -2.304948892
0.3336392696 1.874064542 -1.879862292
0.6568791382 2.064902025 -2.080105063
0.4088862828 2.24447581 -1.626519108
0.1713984271 2.548615264 -1.632348641
0.3302957118 2.595415528 -1.56846014
0.1616347049 2.511299835 -1.401583447
0.4925765215 2.700742581 -1.11373803
0.01802498782 3.006061023 -0.6080202825
0.2991478619 2.987748513 -0.4621371182
0.05540234277 3.149213004 -0.2650030133
-0.1973621466 2.986253411 -0.3253520257
-0.2068835418 3.173098021 -0.2460251578
0.115081751 -2.75590394 -0.008990116647
0.001755324891 -2.939439867 -0.05119387128
0.002059107588 -3.094113611 -0.3524593559
0.4169987711 -3.03222061 -0.6681074797
0.5078470945 -3.040367838 -1.015346668
0.3688487307 -3.048715681 -1.15686394
