# .PCD v0.7 - Point Cloud Data file format
VERSION 0.7
FIELDS x y z
SIZE 4 4 4
TYPE F F F
COUNT 1 1 1
WIDTH 1282
HEIGHT 1
VIEWPOINT 0 0 0 1 0 0 0
POINTS 1282
DATA ascii
5.186767815 2.184414803 -1.713960673
-0.1357890137 -1.062496167 -4.455961578
-0.2155290387 -1.055576068 -4.357621365
-0.2670889197 -1.050985765 -4.256101617
-0.3177789447 -1.047036212 -4.15489144
-0.5007037219 -1.20842968 -4.166785132
-0.4153189657 -1.039625865 -3.951951408
-0.4789890197 -1.034166079 -3.851631389
-0.5289690037 -1.029735964 -3.751921386
-0.5652589197 -1.02762596 -3.65045137
-0.5936791597 -1.02332623 -3.550311469
-0.6451690047 -1.005055916 -3.443191492
-0.7944588957 -1.01024599 -3.352491476
-0.8568589977 -1.007276189 -3.269831383
1.813192722 1.020100125 -3.224439596
-6.678939371 3.03449391 1.731678552
-6.704929231 3.03459375 1.63269852
-5.889048933 3.14079433 -1.164509461
5.984273878 2.214615093 -1.211667926
-5.677898734 1.50009378 -0.6645014629
-0.7790589177 8.03889393 -2.092911501
2.44439501 2.6671937 -2.017391485
2.035063977 2.49469413 -2.23054142
-4.945329337 -0.730636131 -2.248771501
-5.03577864 -0.724656295 -2.154831414
-5.127539246 -0.718335968 -2.050861449
-5.18764904 -0.714226228 -1.95081142
-5.177408791 -0.9566072694 -1.989298521
-5.334149061 -0.704895866 -1.753438462
-5.41914901 -0.699716222 -1.655061462
-5.529138951 -0.693436128 -1.557533455
-5.695006044 -0.5565949815 -1.273778672
-5.704358725 -0.680036258 -1.351779478
-5.77390915 -0.674206179 -1.250043453
-5.820438771 -0.67055614 -1.149338449
-5.866248666 -0.666825634 -1.048416458
-5.901939182 -0.649506014 -0.9494948553
-5.946729093 -0.660795879 -0.8469488591
-6.004199146 -0.657036316 -0.7454704613
-6.055239348 -0.653796058 -0.6465654474
-6.102899222 -0.649736237 -0.547179452
-6.138439237 -0.646715772 -0.4474784367
-6.170419364 -0.644446325 -0.3471064501
-6.184258817 -0.642825824 -0.2479944498
-6.203309207 -0.640745622 -0.1476094712
-6.216238944 -0.639666032 -0.04800847984
-6.229548662 -0.638535779 0.05143255676
-6.042590509 -0.766110891 -0.05377038708
-6.25859922 -0.634256166 0.25162854
-6.252088903 -0.635176313 0.351008575
-6.247389077 -0.633326333 0.451158534
-6.236068665 -0.633075994 0.55088856
-6.236129014 -0.632255685 0.650808576
-6.243418662 -0.634225618 0.750838488
-6.241568683 -0.633005958 0.850708491
-6.236529111 -0.630965989 0.950008526
-6.217869132 -0.632876318 1.050298556
-6.196319072 -0.634066176 1.150128513
-6.169318913 -0.633275669 1.248698576
-6.023483258 -0.6089837138 1.562568382
-6.096298753 -0.635765653 1.446608535
-5.874979256 3.41509341 -1.06411546
-6.304209652 4.56501677 1.389964266
-6.359109043 4.5443943 1.722268469
-6.065952582 4.695130936 2.521239805
-5.085158853 5.48339396 -1.385061455
-5.41805899 4.65429335 -1.07608646
-6.145348905 4.67199444 0.225248548
-6.170189141 4.68379467 2.721378661
-6.021208821 4.80669348 0.02064154236
-2.063317844 7.526157168 -1.633094882
-5.885998665 4.94199454 -0.1774254375
-4.727989196 5.05799412 -2.080411476
-6.483798979 5.08979468 1.220538548
-6.689898034 5.604898863 0.6335719841
-5.154604363 5.630779134 -2.479473955
-5.072319268 5.62229364 -1.384671463
-5.020958691 5.89379429 -2.284861461
-4.983579128 6.58599346 -3.787931532
0.9950089539 2.43263907 -2.031654036
-5.978668986 4.24979388 -0.574349461
-4.446158881 7.107267993 -5.693288208
-3.84323871 8.1308937 -6.979401328
-3.718878834 7.28819429 -6.963661604
-1.934759079 6.88449352 -1.674687455
-4.925679176 6.16639464 -3.087231436
-4.541648685 5.87959348 -4.884961539
-0.2080490287 0.205413837 -3.275621415
-6.477138905 5.22469341 0.820108584
-6.690255211 5.099944612 0.9971455589
-5.121196387 5.599585288 -2.361032902
-4.817248641 5.75149416 -2.884651453
-4.869498818 6.30109369 -3.390241519
-4.190329223 6.71629368 -6.19208134
2.502671997 1.37589409 -3.035381541
-6.75809881 2.89339407 0.831568509
5.098920928 2.46309398 -1.410222438
-1.259689166 2.87749379 -1.806726412
-3.55667895 -5.963406127 -1.762497437
-0.0619589757 -0.924515885 -4.460081377
-0.1641289737 -0.917156201 -4.357541644
-0.2377790807 -0.912525665 -4.253751331
-0.2801490417 -0.907615733 -4.155961343
-0.3285390727 -0.905566078 -4.052491405
-0.3650590247 -0.901925724 -3.952241422
-0.4139689197 -0.89834572 -3.850971454
-0.4634590297 -0.894676309 -3.750341491
-0.5011690257 -0.891425621 -3.65041151
-0.5385090997 -0.887985688 -3.550041386
-0.5900589227 -0.884036135 -3.452031419
-0.8384489857 -0.865795624 -3.342631378
5.364560948 2.26259439 -1.392804471
-2.711363282 -6.024710793 -2.305939676
-6.426618754 3.01939457 -0.2678434484
-6.648189335 3.03459375 1.832748472
-5.984888731 3.1439936 -1.066166454
-6.418628751 1.95439367 2.438508428
-5.738448857 1.50259419 -0.5642974636
-6.085519253 1.52839406 0.639488536
2.459353006 0.47539382 -3.282811412
1.822185011 2.49649419 -2.230961447
-4.944608866 -0.594496142 -2.24798146
-5.043419211 -0.587976139 -2.151131456
-5.100699555 -0.5765875452 -1.976445622
-5.176368861 -0.579115909 -1.951761463
-5.249958991 -0.57451592 -1.853421436
-5.336729197 -0.569875699 -1.756457438
-5.426958709 -0.565616202 -1.664216456
-5.576508998 -0.554186266 -1.555237465
-5.68034923 -0.546685767 -1.452590444
-5.75150898 -0.541675996 -1.351810445
-5.807669221 -0.533796262 -1.250836451
-5.842038749 -0.526776325 -1.15137446
-5.868799 -0.532215994 -1.049803454
-5.889128654 -0.529886198 -0.9488159561
-5.914129077 -0.528436315 -0.8492395576
-5.969238787 -0.525076103 -0.7467494582
-5.779384789 -0.7634181494 -0.648359759
-6.079619138 -0.51688568 -0.5478984563
-6.115308909 -0.514046263 -0.4479534578
-6.149048864 -0.512796056 -0.3478814502
-6.181458889 -0.510186117 -0.2478654616
-6.335534174 -0.7100164021 0.09155172226
-6.219798832 -0.505816352 -0.04917747594
-6.240358709 -0.503745836 0.05103655836
-6.261358916 -0.501796019 0.151238578
-6.274629145 -0.500735801 0.250898569
-6.278218834 -0.500305903 0.35036857
-6.284679233 -0.498566192 0.450268562
-6.278369336 -0.499425989 0.550088554
-6.285218655 -0.497465741 0.650048523
-6.287608801 -0.497155797 0.750198483
-6.280219315 -0.497955989 0.850188627
-6.274559109 -0.496325802 0.949818536
-6.260818748 -0.496015858 1.048968627
-6.234098731 -0.49885602 1.150098524
-6.206769257 -0.498406005 1.248878508
-6.178658961 -0.498315852 1.34678845
4.766281003 1.23849421 -2.493571409
-1.230259 1.51479377 -2.776341432
-6.252088903 4.53519433 0.429388496
-6.354929267 4.54499333 1.621788635
-2.347508348 2.036691662 -2.715140808
-4.959788679 4.64569389 -1.468557457
-5.703332937 4.478603716 -1.174715232
-6.07675886 4.67019438 0.123868498
-3.499689086 1.82379394 -2.282081463
-5.649460372 4.884873029 -0.4417030356
-6.278109311 4.8200941 2.122198499
-5.621188639 4.93599384 -0.676963467
-4.761878906 5.06049453 -1.979451452
-6.459218769 5.08739411 0.82017862
-4.897028713 5.19979357 -1.881479484
-5.057958507 5.540132031 -3.086525051
-5.089089035 5.62249332 -1.283345453
-5.228759109 7.28309362 -4.391731613
-5.142739175 7.28519468 -4.091791355
-2.712869032 6.60269468 -0.9863741583
-4.418989031 6.99929355 -5.593921536
-4.27164933 6.99979423 -5.992581614
4.910671019 2.60759427 -1.368237438
-4.071639239 7.28219359 -6.496191316
-5.846579133 1.91099404 -0.7676114564
-5.008978902 6.1678937 -2.986801521
-4.528788983 5.87869345 -4.984941625
-4.588378726 5.74029444 -4.784361564
-6.466649233 5.36239355 1.118518493
-6.423348694 5.36399393 1.318318478
-4.889458923 5.61469405 -2.38344149
-4.818109183 5.75189351 -2.784711414
-4.820868878 6.3024944 -3.488861502
-4.224628715 6.71659468 -6.091641554
3.012311 0.2250938 -3.616491438
-6.733888893 2.89259388 0.731888495
-5.2333889 1.47439374 -1.254011446
-5.042598902 1.4660938 -1.45435246
0.2906609853 0.05858375487 -3.454381519
-0.0860589957 -0.779055965 -4.357241385
-0.1748289387 -0.772945743 -4.254881584
-0.2380189887 -0.768376302 -4.153731384
-0.4435595964 -0.9370298074 -4.273376829
-0.3267690017 -0.762166243 -3.951911547
-0.3628089497 -0.759165895 -3.851241537
-0.3996189157 -0.756655794 -3.750621446
-0.4361990317 -0.754106205 -3.650281497
-0.4622490547 -0.751456034 -3.550391377
-0.5333290837 -0.748575639 -3.444521421
4.191691016 2.75919421 -1.730895427
0.9530710583 0.93479438 -3.169211478
-6.48303902 3.02079378 -0.1680994526
-6.024449079 2.05559416 -0.6665444587
-6.621938704 3.03449391 1.931598491
-6.057368724 3.14659386 -0.9673722557
-6.633939354 3.43999474 0.728918507
-5.787698685 1.50349422 -0.4648904436
-4.244389145 6.14969342 -6.08896158
-2.42246887 2.78069435 -1.894086425
-2.308568864 2.79629438 -1.912801445
-4.944748937 -0.457546275 -2.248011448
-5.042768775 -0.451286298 -2.150821418
-5.129708855 -0.445615661 -2.053401445
-5.181778728 -0.44265629 -1.956791443
-5.267058818 -0.437846195 -1.858403452
-5.383889137 -0.430306208 -1.756291476
-5.50294867 -0.422416043 -1.656068454
-5.610228835 -0.416355741 -1.555751462
-5.702248721 -0.408405971 -1.451320446
-5.774169176 -0.403665912 -1.351013466
-5.821908771 -0.400386166 -1.250821457
-5.859648942 -0.405405622 -1.14864345
-5.879989027 -0.395655793 -1.050184458
-5.890269338 -0.394246143 -0.950064458
-5.895028769 -0.393386346 -0.8478793581
-5.927289038 -0.391885799 -0.7496444628
-5.853468887 -0.575424027 -0.6093568949
-6.033929198 -0.383746039 -0.5495164663
-6.060662031 -0.1941679416 -0.5199352506
-6.112839042 -0.378426325 -0.3480374467
-6.164929152 -0.5522940955 -0.3399171959
-6.415024922 -0.2664293105 -0.07115643513
-6.207038968 -0.371266317 -0.04910446024
-6.221919267 -0.370075714 0.04979156636
-6.252018868 -0.367506009 0.150258548
-6.266748666 -0.366246116 0.249668571
-6.287588684 -0.364425939 0.349848519
-6.298258661 -0.363265884 0.449608534
-6.301699339 -0.362926137 0.549668527
-6.300838797 -0.362406087 0.64945853
-6.300098954 -0.36167593 0.749358616
-6.297398864 -0.361266148 0.849048502
-6.289358942 -0.36129595 0.949308544
-6.278198718 -0.361436021 1.049168489
-6.262288748 -0.360925656 1.148168451
-6.228869169 -0.36244632 1.247778616
-6.193908809 -0.363326233 1.347238465
4.395040923 2.14719384 -2.269371425
-6.171902726 4.619033103 0.3574091776
-6.315418838 4.53609436 0.525608554
-6.335428863 4.54339443 1.52213861
-5.525759368 5.3491941 -0.6774624464
-4.768878727 4.64499353 -1.569883444
-5.928508698 4.66469436 -0.1746564758
-6.190828739 4.67229395 0.324998505
-6.363378971 4.68119441 1.921498484
-5.779379367 4.80159431 -0.3780434494
-6.241898744 4.82039361 2.22155851
-5.562229215 4.93499397 -0.7776654562
-4.791278897 5.05709409 -1.881669474
-6.402718781 5.08639424 0.620148505
-4.931998758 5.20089476 -1.781035413
-4.865588753 5.47539352 -3.081171506
-5.08645898 5.62249332 -1.182635466
5.345000939 1.1279939 -2.37495146
-6.543159245 1.94599389 0.438258506
-5.185319244 7.14429377 -4.589441337
-4.345109074 6.99949472 -5.793381401
-4.307918756 6.99929355 -5.892621272
1.203041018 -0.09258629013 -4.294701584
-4.322518914 7.28099405 -5.995731347
-6.206419079 1.92279427 -0.3699404773
-5.069318919 6.16849421 -2.886661433
-4.516798763 5.87819426 -5.085061409
-4.574648796 5.73959409 -4.883781367
-5.722208826 3.96519362 -0.9664430577
-5.075008606 5.533190866 -2.432292213
-4.819669335 5.75279354 -2.484481514
-4.755998908 6.30409329 -3.686651506
-4.258519171 6.71669452 -5.990731635
0.4454110343 8.92499446 -2.701791481
-5.827668815 3.96719335 -0.8648262566
-6.790859013 2.89489387 1.031938463
-4.98938909 1.87739416 -1.376130444
-5.147319047 1.46809428 -1.351303479
-2.086278929 2.71619393 -2.032241423
-1.980029179 2.71779432 -2.034881444
-0.0842589357 -0.636445891 -4.254231521
-0.1522190337 -0.628455889 -4.156381556
-0.2171689117 -0.622785997 -4.056241282
-0.2656289777 -0.62064619 -3.954211541
-0.3025190377 -0.618995887 -3.853201412
-0.3277589967 -0.616966348 -3.75219147
-0.3637190377 -0.614526283 -3.652601422
-0.3910289547 -0.610895615 -3.554461443
-0.4279190147 -0.599826288 -3.460981429
1.9937775 2.420242041 -2.07022559
2.796433 2.2365941 -2.560751431
-6.528939067 3.02229433 -0.06807745684
-5.84820932 2.04589425 -0.8695389584
-5.940609186 2.05189421 -0.7662664637
-5.777528642 4.1029936 -0.8622332566
-6.117848812 3.1488946 -0.8678445566
-6.459139048 3.15769373 -0.1676204734
-5.847759305 1.51839389 -0.3626004447
-2.780358999 2.70349367 -1.805276436
-2.892799063 2.18699409 -2.269851428
-4.728681091 -0.09989187595 -2.456740183
-5.047089367 -0.313726228 -2.155011439
-5.131409078 -0.30836628 -2.05532146
-5.219249188 -0.303246241 -1.958771434
-5.311778693 -0.297595721 -1.855874446
-5.427329003 -0.289905977 -1.752374426
-5.522919207 -0.283675801 -1.652284444
-5.606558679 -0.278136295 -1.551677438
-5.68824908 -0.272985708 -1.449943439
-5.758899211 -0.268355918 -1.349622442
-5.820469319 -0.264015954 -1.250476449
-5.856708943 -0.261446249 -1.151043468
-5.892868845 -0.259146255 -1.050953463
-5.901579319 -0.257746291 -0.9504955556
-1.437458901 -5.732705977 -3.646521375
8.150790871 -2.611646217 -0.6180414584
-1.016968994 -4.97061589 -3.376781487
-0.2115889857 -4.824906003 -3.516201408
-4.992609231 -1.707916122 2.492618642
1.001351008 1.3321942 -2.989121445
-0.6455389257 1.22009425 -2.867241495
2.205296007 0.30317365 -3.700821393
0.5375510613 2.85079389 -1.391681435
3.386686982 1.74909367 -2.837901481
2.744847298 1.02589412 -3.063691513
1.734662016 -0.08537561913 -4.299221479
6.75391026 -3.173941528 -1.203082168
4.941741058 0.76859428 -2.790091478
0.1757510533 2.28409379 -2.189071488
4.343482072 0.5443951789 -3.033023846
4.986931064 2.64839365 -1.208627469
5.155690999 -3.370395836 -3.310131387
-0.0660489717 2.52439438 -1.837507461
3.236177989 0.04926382287 -3.829501488
5.069641077 0.203074354 -2.987511375
5.719580927 1.32879375 -1.990151417
-2.220599114 3.06539445 -1.59443944
4.717720912 -0.269956302 -3.289371461
-0.3532390517 1.98159425 -2.469681495
-0.4557391097 1.98649375 -2.474391379
-1.085429026 1.99969395 -2.485821501
5.164850929 0.181083966 -2.964561538
5.462232914 0.2980030181 -3.113972384
2.875816992 2.69209428 -2.045421501
5.468061061 1.65999367 -1.945501485
3.001122998 2.62039437 -2.17315146
1.262430993 0.81869422 -3.246951395
7.291671128 -3.260825735 -1.169573458
-2.085336573 -6.141132987 -2.247270802
4.912941025 0.412753809 -3.009541438
-0.2030189557 1.06289371 -3.106141382
3.386538017 -0.58162601 -4.176111438
5.344590971 0.115234244 -2.896571451
5.254327323 1.384574319 -2.15307593
-1.927679165 2.00519397 -2.487211407
6.133121119 1.40249415 -1.466249454
8.300061019 -3.040476304 -0.7763544567
5.198841037 1.85739382 -1.958391455
0.0712609443 2.18639432 -2.286541474
1.177984226 0.3826099368 -3.663318547
-0.9090290807 0.339104075 -3.151661449
1.457450965 0.283854294 -3.685551428
5.630571076 2.06199421 -1.37687648
2.033144987 2.39329397 -2.322641493
2.13193298 2.38159432 -2.310221468
2.233967005 2.37209408 -2.300471452
3.222903988 2.14109405 -2.660371468
1.621131 -0.304755729 -4.476811283
6.512511016 0.61109422 -1.618796459
-0.9847988777 1.88779368 -2.568931424
-1.006608962 -5.055716049 -3.49713146
-0.4226790217 -4.935186144 -3.613381379
8.245311172 -2.632315617 -0.5955234523
-0.5150189097 2.67529397 -1.590686443
5.431420968 0.08218421387 -2.85841144
2.225901007 2.15899407 -2.472851531
5.51577104 0.03273396487 -2.809611441
8.334601165 -2.666056317 -0.5594344464
5.616731064 0.224984277 -2.61230144
4.462730938 0.86729436 -2.895971493
4.356161 1.06499403 -2.707081393
8.41881098 -2.70575599 -0.517469447
-0.09946710493 1.774368478 -2.804110371
-0.2846746024 2.069229751 -2.340016725
5.271201075 2.38639398 -1.327899436
5.159840972 1.18049367 -2.431551472
2.331188002 1.65529384 -2.936581441
4.33530105 0.52479415 -3.132471547
0.8467810753 1.84909387 -2.73766137
-1.723048969 1.99399425 -2.478971437
3.037923137 3.257672975 -1.819810407
4.734301062 1.68439432 -2.371421468
5.600081065 -0.006725800126 -2.765821398
0.1491210023 -0.20897628 -3.981391446
1.908177996 -0.04734431619 -3.900533659
2.6865766 2.22659393 -2.54944145
-1.293939112 2.20599382 -2.30088142
5.588230917 -0.745435965 -2.987501503
5.684820989 -0.796555888 -2.933501371
7.189050929 -3.044916105 -0.9847116601
4.20732103 2.59189366 -1.949901425
6.807410957 -3.148725789 -1.281670446
-1.575539021 2.37769394 -2.282121417
-2.777468918 3.01489441 -1.535686443
3.788271041 0.08665381687 -3.467591398
-2.306679024 1.47669374 -2.75246139
-2.205468847 1.47419407 -2.744581469
-0.5333890607 -4.948976051 -3.600581468
5.557723685 0.5462501048 -2.562056649
1.080590912 1.06479435 -3.106991493
7.008891047 -2.877506029 -0.9546490564
0.5958609813 1.36769398 -3.027581529
5.110050978 1.78829415 -2.084211458
5.683551037 -0.05172581613 -2.718161524
4.819411093 -0.178525757 -3.187881515
5.767851004 -0.09630562013 -2.671191388
6.023217815 -0.03541066485 -2.79079099
5.93727106 -0.179615777 -2.582041466
0.7363210023 9.16359334 -2.613571391
0.6997323171 9.294195856 -2.742887917
6.020301075 -0.220696044 -2.537831397
-0.5908591147 -4.741465833 -3.188271367
5.478297145 0.09823300839 -2.517525894
6.192301081 -0.106646281 -2.258591459
3.402300977 0.159284312 -3.545901471
4.435404903 2.554858052 -1.911737727
0.0155209163 -5.55138604 -3.825401434
3.278339009 1.63109435 -2.898851515
5.002820918 -0.951256018 -3.377321468
1.907277021 2.15549378 -2.467701503
-3.345758973 -5.091465798 -1.384172461
6.106141077 -0.263726127 -2.492321388
3.926041031 0.54839386 -3.155041405
4.625581072 1.57959371 -2.457541519
2.539309004 3.04519444 -1.624199481
0.9317510353 0.7913938 -3.217721463
0.7978810523 2.45609416 -1.974151482
3.322337993 2.22849383 -2.554731549
1.500001044 0.97169413 -3.208481439
1.518231032 0.104643989 -4.095411592
4.947881081 2.08489432 -2.003651497
3.834641033 2.39349439 -2.334811457
3.429829988 2.42889433 -2.371001442
7.850140945 -2.784055632 -0.8447587551
7.303681092 -3.026665908 -1.003805455
6.188250945 -0.310056072 -2.443081432
3.320781986 2.42749437 -2.368381445
3.872271029 1.66319369 -2.748211392
-0.6741089217 1.87509416 -2.556801506
6.139451132 1.20809435 -1.657211467
2.759091801 0.441814053 -3.246661381
-0.8791090397 -5.010255959 -3.542221443
-0.3111089987 -4.925776061 -3.621731431
-1.877578853 2.51009374 -2.21912145
6.190071122 -0.210546118 -2.348481503
-2.558818965 3.0281937 -1.549024473
6.267531083 -0.363365721 -2.38673148
6.344691159 -0.423155886 -2.323421475
0.6227110113 1.82409419 -2.709651471
0.7365810283 1.84069409 -2.728021436
6.376695806 -0.4808998728 -2.207614808
6.502250822 -0.530495655 -2.20960147
6.099450828 -0.995846253 -2.726181515
6.197710947 -0.001266014126 -2.172261488
0.6545510673 9.12299364 -2.767851495
0.7803509543 9.18629377 -2.849691466
0.9237809633 9.21049475 -2.879651368
-3.592248766 -5.161196154 -1.313138439
-2.971978991 -5.953486052 -1.976371475
-0.9771091337 2.10219382 -2.39323146
-3.245388849 2.11359395 -2.187531453
1.828816027 -0.316456121 -4.459421628
-2.064615784 2.494814503 -2.404678177
-0.8139488687 2.91179403 -1.44410847
-0.2629989227 2.35459416 -2.058291447
4.208890961 2.29749365 -2.232211468
5.820001156 1.51489435 -1.789422438
3.003431002 1.92729368 -2.829761536
5.362181046 1.36069416 -2.225261473
5.527591014 2.26659386 -1.197617466
3.492058029 3.04189383 -1.631501469
1.606991009 0.170314151 -3.964751505
-0.5490289477 -5.842346114 -3.949551389
2.67011746 0.57579412 -3.188491532
1.033961081 0.78659414 -3.215531365
-0.2503789437 -5.876096126 -3.902071447
3.891671037 -0.218226176 -3.744321422
0.4958110453 -0.04168615913 -3.949591436
7.961141185 -3.599285867 -1.218345447
8.038250969 -3.646145922 -1.163748454
3.532453028 2.42439418 -2.366661479
8.241040872 -2.743686151 -0.6815644567
8.330111073 -2.774626177 -0.6484114685
1.926652023 2.39429383 -2.323291463
2.340237989 2.37239434 -2.301341493
-0.9791591607 1.9970937 -2.483451472
4.28286107 2.73079409 -1.699356467
-2.470023889 2.099735235 -2.227458077
2.546790004 2.86269395 -1.827481494
-3.308998926 -5.88066594 -1.849359472
1.229281032 1.56679435 -2.838321508
5.329971069 0.89879392 -2.530301467
2.130106983 1.67449399 -2.956811444
1.126981021 1.57539381 -2.848011547
5.858750881 0.68229421 -2.301351459
-0.9811391527 -4.685665828 -2.416511451
0.9513009863 2.1455942 -2.451491461
-0.5658389477 2.17819421 -2.274351486
5.53317094 -0.540925723 -3.000931547
0.4208710573 -0.184665781 -4.205771454
-1.771348848 1.59169419 -2.653791488
-2.150859072 -5.787706163 -2.133101423
7.420061023 -2.905856233 -0.9230236584
0.5080309293 8.94739388 -2.776391537
7.307350875 -2.91537584 -0.9149713576
0.8271510313 9.16299431 -3.003911407
0.9676410413 9.19979422 -3.056871437
5.611301081 2.22259371 -1.149059448
1.445891016 1.5765941 -2.849621431
-0.7271291157 2.87499412 -1.403816475
-3.007919102 2.37559437 -2.062281419
-2.090729161 -5.463576105 -2.065841493
-1.873958989 2.71929412 -2.037261438
-1.674299075 2.39119439 -2.295681474
-1.501048666 2.1438918 -2.247751062
4.026300979 2.45359375 -2.200211503
4.119760969 2.42919384 -2.174561483
5.885441096 1.83969422 -1.336295449
2.740958299 0.117674309 -3.901761503
1.500441001 0.169333655 -3.964041465
1.374060993 2.04609393 -2.548411407
4.383600929 2.02579408 -2.339001478
0.1816809703 -0.447765898 -4.339031421
5.982791127 0.318433929 -2.308001474
0.9104410713 0.64939393 -3.270931461
1.870460023 0.66599383 -3.28393142
0.0695309193 2.2813937 -2.186141454
4.958971084 -1.24264599 -3.477571451
-3.005159034 2.27639436 -2.160411433
5.04420107 -1.281085771 -3.43482151
5.212540978 -1.372085672 -3.343001486
8.105810971 -3.724586007 -1.083079458
3.917622297 2.227061534 -2.486548241
4.752731004 0.81259369 -2.837541432
5.112851092 2.29289367 -1.627670473
5.713320949 2.01979412 -1.333448442
-0.5618990807 1.98589398 -2.473551513
-0.6720089757 1.97919368 -2.464951494
8.005000891 -3.310876128 -1.113279455
3.219853022 2.33399405 -2.468181507
3.417381977 -0.314956319 -4.04944151
-0.3595489477 2.2722943 -2.172621445
-0.2527690897 1.86769425 -2.550461435
-0.7642888867 -4.989116054 -3.562341549
-0.6121390907 1.48239418 -2.743431472
-0.4073889397 1.47029369 -2.731901512
3.691371025 1.82309433 -2.718411491
5.258620956 -3.276686158 -3.204781481
5.339790934 -3.323126 -3.155241453
5.027300918 0.62899424 -2.84143138
-0.6493688967 -5.178745997 -3.782961436
2.340312006 2.17139407 -2.48694151
7.278421016 -2.143246096 -0.502384466
7.328811155 -2.252175819 -0.3874194462
-0.9788689607 2.60339438 -1.916961477
1.060191037 -0.680466157 -4.696691328
1.465351002 -0.825765889 -4.740951502
7.403290884 -2.315426033 -0.3214224362
7.494690881 -2.346465897 -0.2894524605
0.8339109423 9.07009451 -3.116941371
0.9774709643 9.13769363 -3.197821521
5.098060944 1.66719391 -2.152741433
7.602691145 -2.348845613 -0.2891334359
1.917561011 1.67349412 -2.95522149
3.976821022 0.04070385087 -3.418921412
-1.264188944 -4.834395808 -2.686161467
3.480713613 -0.2381930117 -3.776436326
-2.770849078 2.42029412 -2.113431425
-0.6966890237 1.62759407 -2.698681422
1.896019985 1.92959367 -2.62672148
-0.8436088993 2.862878351 -1.977454338
-1.06911896 2.73509382 -1.856064436
2.937589988 0.08637367487 -3.869121441
2.342845995 0.163523692 -3.953721479
2.011716 1.85359402 -2.745371417
5.084461027 1.53779371 -2.215611481
7.6852065 -2.221153087 -0.08779926669
4.359651038 1.78009405 -2.473471419
1.157780976 2.03759431 -2.537861385
-0.4436289367 -4.766715851 -3.370571428
-1.558499171 2.715694 -2.03568145
6.122711168 1.58479421 -1.261294459
-1.787359028 3.08299421 -1.618676458
-0.0259089687 2.78779401 -1.315928449
4.992231142 -1.329790857 -3.467478975
7.820080833 -2.340285641 -0.2984984432
4.023890996 2.34949424 -2.287971427
1.933944977 -5.933905926 -3.387391486
5.729511061 1.4513938 -1.921451476
1.758503967 -0.764525842 -4.604091414
3.18413601 3.06349455 -1.651902462
-2.782708912 2.80149414 -1.707455435
7.92588094 -2.340255838 -0.2987344403
8.027180896 -2.34617607 -0.291736436
-3.35690914 2.20139383 -2.075891488
5.39519103 0.61599373 -2.629611374
-0.8785591867 1.88539385 -2.566991479
-2.106168999 1.46679415 -2.730911516
-2.028154826 1.706474662 -2.505194175
0.09894136313 2.328771281 -2.530197908
-0.2512290547 2.1756938 -2.272501414
5.094811001 -3.183996093 -3.303031542
8.124840872 -2.36004607 -0.2765844696
8.218610899 -2.380015862 -0.2538764503
8.309401066 -2.407875818 -0.2230944697
-0.5613689717 8.12669455 -2.238831495
-0.4339390837 8.18919449 -2.311481454
-0.2737089467 8.27499388 -2.411311504
-1.974158867 1.70989393 -2.576041513
5.482320913 0.57819395 -2.589531534
5.46752108 1.75809397 -1.850760461
7.417360933 -2.804175925 -0.8262186605
-1.767718925 2.71999373 -2.038611484
8.138260858 -2.840855878 -0.7842444585
0.9101342465 8.844675697 -3.000474087
0.9826109343 9.04629438 -3.300571547
-1.769878848 1.7003937 -2.568941482
3.329651996 2.54029392 -2.290481434
2.027908021 1.67779385 -2.960161411
2.650937767 0.4675167699 -3.035467213
3.201828997 2.79799386 -1.964811434
-2.652708946 2.44309439 -2.139611461
3.626370997 2.115452425 -2.387516085
-0.8977291577 1.64519383 -2.71446138
2.128122986 1.77279397 -2.861011506
5.174820924 2.50339417 -1.255011454
5.230694827 -0.3885304101 -3.098653229
7.949090989 -2.79609577 -0.8319873599
0.7476309843 -0.572326195 -4.608381458
8.320001007 -2.896116089 -0.7234534601
0.9863509393 2.81119405 -1.551228448
-3.642798721 -5.026025858 -1.009966457
0.9256309423 -5.943126019 -3.599491448
5.178220996 1.51479377 -2.190241416
1.051520982 2.03819408 -2.538051375
1.557461039 1.38299375 -3.043751524
-4.410469292 -5.677735966 -0.8509802577
2.359014011 0.58769419 -3.202181415
4.443921016 -0.999695968 -3.729971417
-1.186419039 3.01119446 -1.54936245
6.058380992 1.56539439 -1.441830455
4.11707103 2.32469423 -2.261411504
-0.3864090367 -6.038886097 -3.929861368
1.343700995 0.267124015 -3.667971411
5.105920934 -0.23855583 -3.121971444
4.915130937 -0.195905727 -3.165751428
1.943140018 -0.09187625013 -4.290811636
5.387623592 -1.06867941 -3.188842968
4.074990989 1.13789423 -2.781711438
-0.7783291337 1.97619407 -2.461611398
-2.301210982 2.344287621 -2.352672766
-0.5482909103 -4.651835329 -3.265448846
2.12961599 2.27679371 -2.398471453
2.027131018 2.28059425 -2.402171505
1.916929015 2.27509423 -2.395741467
3.844351491 2.780431514 -1.951142314
-0.4089289747 2.67219378 -1.590329467
0.7992009233 -6.103066143 -3.664211475
-0.9897490437 7.81169443 -2.082751424
-0.8524091387 7.87649362 -2.157661424
-0.7119690477 7.94869422 -2.241631423
-0.5603389287 8.02169352 -2.325401467
-0.4242589167 8.08689355 -2.401571453
-0.2706890397 8.16899447 -2.495281503
-0.1347990177 8.23419451 -2.571811446
0.009740941302 8.31249415 -2.662871511
0.1634609483 8.39489459 -2.756371454
0.3164910303 8.48689436 -2.862281457
7.951900975 -2.586935621 -0.6443974682
2.17011054 2.738369609 -2.068504555
-0.0568089477 -0.01046599113 -3.381081403
-1.659419148 1.70629381 -2.574221522
1.135380992 9.02589469 -3.455611423
1.227221039 9.02299343 -3.4717315
0.005550921302 6.35419397 -2.109371417
1.93127902 0.08856414587 -4.074991413
-0.0690090877 1.50909408 -2.773531445
4.705031083 -0.396465671 -3.356711485
4.66238098 2.44639425 -1.791761455
4.756441021 2.42299421 -1.767169417
-0.0128089857 -6.07845613 -3.799421445
-1.354069023 2.69899427 -2.019371477
3.790039433 2.769697994 -1.609196901
8.046851174 -2.812645745 -0.8138655572
3.800480959 -0.08987576913 -3.680061468
3.892510997 -0.117215675 -3.650721454
4.304410943 2.37649365 -2.117941447
5.964511128 1.78709387 -1.279105468
4.389120114 -0.7762996956 -3.501103954
6.058461086 1.36129393 -1.622914442
6.208731101 1.24009385 -1.491343475
1.886330039 0.299493808 -3.698021465
1.923774981 2.69059374 -2.037891478
-0.6525190017 -5.837026026 -3.956121498
4.359895057 -0.6916636445 -3.721964168
-2.444668992 3.04109364 -1.565205457
2.137108014 2.690894 -2.040281438
1.705807035 2.57569386 -2.113201481
-1.210082721 2.396768952 -2.103133704
3.463770968 0.372454364 -3.171421506
5.46174092 1.44759401 -2.118051437
1.292770968 1.07789396 -3.137671494
-1.283589138 2.32709407 -2.228401427
-1.084879174 2.29959397 -2.198891447
5.034001039 2.24539398 -1.776109461
-0.8767088347 1.9917941 -2.478311502
3.219196999 2.42529421 -2.364881442
-1.476979016 2.36379414 -2.267641493
2.234253992 2.27449371 -2.39562142
1.451121221 0.3185385992 -3.497984643
3.688760993 -0.405796033 -3.952831508
1.487521042 2.26729422 -2.383941424
4.672670977 2.06909387 -2.18659147
0.8309210243 2.22009404 -2.327851497
0.7130709073 2.19489394 -2.300551453
-0.9998889117 7.68569468 -2.145141468
-0.8617588727 7.749494 -2.219211415
-0.7197288267 7.83029406 -2.31375146
-0.5759188377 7.89029359 -2.381051437
-0.4382490587 7.95449375 -2.455611446
-0.2897489287 8.03079366 -2.541991428
-0.1533889617 8.0954945 -2.618491382
-0.0003590656984 8.17869364 -2.711901546
-2.076418831 1.71909391 -2.587241412
-1.207069068 1.76349415 -2.637381398
-1.100859179 1.76489412 -2.639441484
0.5992610533 2.17929392 -2.282541443
-3.116129099 2.56359412 -1.853944466
0.4929109073 2.17849373 -2.2807615
1.11311102 8.88269453 -3.52348137
1.247051039 8.94119351 -3.577741527
1.356841025 8.94379376 -3.583031439
0.3863109803 2.18119382 -2.282531478
6.347171084 -0.318315786 -2.233951458
5.29106097 -0.290955764 -3.065871366
4.16679099 1.10929369 -2.753821493
4.518690945 -0.344576102 -3.411941522
6.326821459 0.5488646173 -1.854899658
2.1347068 0.1555147762 -4.138953654
1.115651016 0.233194071 -3.633681417
1.810709999 2.77859404 -1.929961436
0.2800509863 2.18079372 -2.281561413
8.414471017 -2.818516057 -0.6023464611
1.914886019 1.77279397 -2.85971138
5.436180196 -0.3213636208 -3.038197987
1.112889879 -5.839255452 -3.397581322
2.03600521 2.524979439 -1.907422382
1.462241036 0.69119393 -3.307411366
6.312601135 -0.791546118 -2.538241365
4.09253096 1.978994 -2.487061464
-3.232808917 -5.062376123 -1.412022452
0.8538010123 0.02616404287 -4.020861455
-0.8720291247 -5.862296161 -3.92647154
-0.4307990367 -5.161665913 -3.799171478
-0.4639090447 2.17489435 -2.270161466
-3.859659045 5.98839431 -0.330123457
-3.765608876 5.9779933 -0.3081854553
-3.659958898 5.98059355 -0.3112284586
-0.9877510538 2.155173368 -2.162892397
-1.085158943 2.20039396 -2.295091481
1.800855023 2.15459375 -2.466511459
-3.082788868 6.28529398 -0.6923614655
4.83611101 1.77469386 -2.269661439
-1.872028916 1.70489385 -2.572471381
-1.326199009 1.63169413 -2.697931521
-2.504208817 1.61329417 -2.68394138
3.52628702 2.31149404 -2.444721491
2.67043646 2.39839389 -2.331601468
1.929786994 2.99799352 -1.769004495
-1.752698927 7.15879409 -1.74854548
-1.603999122 7.24459349 -1.847479504
-0.8882788417 1.76599382 -2.641111531
-1.307479052 7.39819466 -2.021711425
-1.155408977 7.48179464 -2.116381482
-1.016549154 7.54559397 -2.189271443
-0.8735091827 7.61579334 -2.269651473
-0.7426788507 7.68379329 -2.353631438
-0.1068889567 2.73769407 -1.462875458
-3.559808938 7.70919381 -7.082071447
-0.9939388777 2.97409429 -1.509788458
-2.591109036 1.73989369 -2.604811371
-2.375919132 1.75089373 -2.618551546
-1.985940858 1.8447388 -2.462123164
-0.004769063698 2.73229389 -1.456900465
0.1016110713 2.73439421 -1.459154452
-0.6421963415 1.591570668 -2.773686864
-3.460658847 -5.216266003 -1.469036436
-3.340219094 -5.183676046 -1.501483436
-0.6796689177 1.76039397 -2.636261389
1.235200984 8.81169348 -3.650501476
1.352061012 8.84839355 -3.683161468
-1.430888979 1.73639416 -2.606911504
-0.5734888307 1.76219403 -2.639191517
2.342479007 3.07469426 -1.654892473
2.672543137 0.8888955446 -3.092978595
-0.3830590687 2.42629408 -1.931731415
2.134105989 0.169504273 -3.96070137
1.815373038 0.166404087 -3.958801472
0.7061409363 0.05775375987 -3.852541477
1.732585043 -0.4020268597 -4.686998118
8.052990825 -2.697166216 -0.7314424616
7.745690883 -2.680546206 -0.7506944592
1.691180986 1.74409433 -2.828931541
3.474487976 -0.613466066 -4.137641483
4.845704143 -0.4123390229 -3.360050595
0.1568109323 1.63989424 -2.711741545
0.0406809683 1.72239377 -2.597931505
1.680140995 1.82839392 -2.716981538
1.79563198 1.84169396 -2.732701518
-2.975189074 -4.981275808 -1.497284475
6.134891005 1.30169376 -1.557813457
5.89101115 1.15359409 -2.001771436
3.291202995 1.76909401 -2.857071453
3.736360983 2.60579421 -2.163961449
-3.826179116 5.95269411 -0.4983184513
-3.716128825 5.95749377 -0.5088804642
-3.614329307 5.95769345 -0.5049194562
-3.509948908 5.96109389 -0.5094864526
-3.377758844 6.01009338 -0.5726114501
-3.213748841 6.09549342 -0.6842734645
-3.056528925 6.19149416 -0.8003589584
-2.905849128 6.28079383 -0.9092082578
4.024791026 2.55029409 -2.10428146
-2.563168986 6.52219414 -1.202320459
-2.397329121 6.63169383 -1.335202449
-2.186307135 6.619469232 -1.248300447
-2.083119138 6.82119339 -1.56475344
4.118271039 2.52559392 -2.078471438
-1.771168916 7.01229333 -1.781875466
-1.611438899 7.11069464 -1.892227412
-1.471258833 7.18239455 -1.976201416
3.395261017 2.96059384 -1.742645458
2.756784397 2.95749365 -1.732948434
6.059041114 1.26449375 -1.719710429
5.978691073 1.31199418 -1.770870493
1.810998988 2.9766938 -1.742947486
0.6079510383 1.69999434 -2.779051394
-0.5944588627 1.62069409 -2.691921511
-0.7992991647 1.63389428 -2.704221488
-1.110448821 1.6446939 -2.713721537
-1.216849073 1.6431941 -2.711621405
-2.609399094 1.60839393 -2.672441409
6.277071179 0.56509434 -1.972851449
3.605608975 2.8570941 -1.832522464
2.390227376 2.805930464 -1.70132343
-0.2970389497 1.47669374 -2.737631381
-0.1565789277 2.35569387 -2.060211462
1.018340939 2.46959387 -1.992521447
5.977421121 1.11159368 -1.956801501
1.339860966 8.71809332 -3.736401454
1.456240991 8.74309449 -3.762261488
1.547092569 8.679296197 -3.978376954
-0.009169004698 0.297114093 -3.302011371
-0.1098090257 -6.089845833 -3.860801377
0.2099728266 0.1050252957 -3.309373166
2.857733001 1.14009439 -2.987421409
-1.17831914 -5.622305882 -3.757101402
0.2150010843 0.322703857 -3.327411518
0.5925110133 0.04024415087 -3.834801459
0.3171010473 0.316764254 -3.322751366
7.953971119 -2.685076159 -0.7445254599
7.851800935 -2.679436069 -0.7512044631
2.441319993 0.15085398 -3.93913138
2.543639002 0.145234007 -3.932241456
1.682979015 3.03459375 -1.601739473
0.7703509713 -0.32099576 -4.465791502
8.401360975 -2.942036253 -0.6746264527
-2.668678893 3.01929473 -1.538864442
5.011160911 2.49869435 -1.449885464
-1.321138947 1.74709393 -2.61945139
4.806751066 1.51959418 -2.393181448
-3.470508887 -5.132125851 -1.34294146
1.771516965 0.67889376 -3.295671486
0.4195310703 0.310844022 -3.316721425
-3.80011922 5.90489416 -0.6496104532
-3.698569297 5.89419364 -0.6425164527
-3.592399268 5.89489399 -0.6455364524
-3.486779092 5.89749424 -0.6498464503
-3.369828819 5.91899364 -0.6788094648
-3.22043909 5.98639457 -0.7641914537
-3.222801434 6.101726265 -1.111644304
-2.910879015 6.16149365 -0.9760071585
-2.741988881 6.27069383 -1.10565346
-2.57290913 6.37909381 -1.235240454
-2.426508947 6.46989404 -1.348656474
-2.261778845 6.57109379 -1.469390479
-2.099529042 6.6732934 -1.592034439
-1.953619106 6.75289391 -1.684589417
2.533092997 1.74099414 -2.830641449
2.431165992 1.74179434 -2.828461409
2.328884003 1.75119399 -2.838711546
2.230437013 1.76479428 -2.853001387
2.025645 1.77749379 -2.86627143
2.660894812 3.13258874 -1.562305855
2.866827994 2.96519383 -1.74260448
2.544995998 2.95599385 -1.728962467
0.4993610613 1.68739392 -2.763981477
-0.2532289767 2.27269365 -2.1737815
4.24967461 -0.4713458523 -3.654686271
4.556300917 1.14219396 -2.591381513
-2.89281918 2.79209374 -1.696038444
-2.512795855 3.036048049 -1.907363468
3.98941347 2.983158995 -1.652947731
3.990933189 2.976766822 -1.907806655
-2.942409127 -5.775416058 -1.95209143
2.784428997 2.41259395 -2.348641504
0.5250510353 0.313603717 -3.320921504
-0.3123690777 -5.035605815 -3.717441403
0.6353010023 0.322393912 -3.329221451
1.318500989 8.5613942 -3.738241375
1.424570994 8.59229474 -3.79092145
1.541991026 8.61579387 -3.821591393
1.620641032 8.57429414 -3.780061484
-0.440633168 0.9436968837 -2.898376581
0.7460110413 0.329384047 -3.334711411
0.8521909423 0.330634255 -3.335331485
5.550441013 1.41249432 -2.080661443
-2.839809044 -5.905215975 -2.018641413
0.9587409503 0.330713976 -3.335191415
1.010477037 0.2926632018 -3.433103219
4.331220926 -0.297436279 -3.460941383
3.330033978 0.02613424087 -3.805221536
2.642492299 0.131323773 -3.917131492
0.1627710243 1.5502943 -2.818181471
1.179240977 0.347483743 -3.351921507
1.091430948 2.72329434 -1.655538439
1.289480978 0.357433993 -3.362191387
3.595866968 0.124753851 -3.507731401
-2.857779099 -4.946246159 -1.534262451
3.363156977 0.48299416 -3.089091473
5.627580972 1.25519394 -2.112071414
0.6958410673 0.6473942 -3.277291463
1.402991039 0.375793714 -3.381641501
-3.780078648 5.84449379 -0.7842544586
-3.683598845 5.82589417 -0.7690834583
-3.585958986 5.81119417 -0.7552714556
-3.476039081 5.8139941 -0.7639744555
-3.357289119 5.83189337 -0.7890684534
-3.225159033 5.8741933 -0.8404694559
-3.079899161 5.93989401 -0.9185882579
-2.933979167 6.01459353 -1.00823046
4.655451008 -0.799895984 -3.537071415
4.232890957 1.53729378 -2.615641535
4.146661011 1.57959371 -2.656821453
3.967110959 1.64109378 -2.724471421
3.583854024 1.72069429 -2.808381536
2.967431007 3.05569379 -1.640338463
2.6703833 1.77359416 -2.858161473
3.095779994 2.79379396 -1.960701414
-0.2885089657 2.60419382 -1.718319499
2.142830013 2.8032942 -1.960951474
0.4906129079 -6.089453907 -3.538074016
1.804585994 1.76309406 -2.849601501
1.451631037 1.68769418 -2.767201432
0.8364009263 1.72759427 -2.810841531
0.7225610843 1.71509369 -2.795681462
5.428081059 -0.638806235 -3.097351373
2.483683994 1.22079386 -3.082411469
3.812413972 2.329252579 -2.616166399
0.9918109113 1.21379404 -3.064741486
0.5763762197 1.30590507 -3.1011023
0.5863909203 1.24699383 -3.099091456
0.0392409573 1.21319427 -3.064191447
-0.0745489667 1.19599386 -3.045541526
-2.422908826 2.58059411 -2.086081461
2.981675004 2.97709389 -1.758224436
7.412776872 -2.442816244 -0.6225159484
1.518270986 0.388554323 -3.393401497
1.848357009 0.2530662778 -3.365425442
1.203883257 8.272078107 -3.980834522
1.528750972 8.48779439 -3.854401515
1.737505996 0.407364059 -3.41384142
1.84350196 0.412613738 -3.419131518
0.0599509633 1.95969402 -2.447871503
1.953961008 0.425013739 -3.429271386
-0.7884190827 2.25869401 -2.156061412
-3.459879144 -6.089056071 -1.844255452
-3.829947341 -6.370201971 -1.855054949
2.007642786 0.3963791103 -3.457518486
0.9533409553 1.84789433 -2.736671374
3.707301018 -0.164985817 -3.800731444
-3.539278864 -5.800555807 -1.72626843
8.107181133 -2.292885792 -0.144257455
5.989860189 0.9083592117 -2.083181965
-0.8908988377 2.26499422 -2.162501414
1.169090958 2.2598943 -2.373991453
2.191904008 0.424284327 -3.420671367
1.533901 1.24429374 -3.099111386
-1.621593506 -4.788934335 -1.895735395
2.27212399 0.421503771 -3.428611451
0.2749009583 1.86369403 -2.547941462
2.374682 0.419343847 -3.423341469
1.051990928 0.116754163 -3.911921487
7.474180923 -2.283665698 -0.155003474
2.500610002 0.414784092 -3.409151466
-3.757358848 5.78419476 -0.925471957
-3.669068723 5.75039445 -0.892466228
-3.571909054 5.73299437 -0.8765466573
-3.474018856 5.71669399 -0.8605747574
-3.363049163 5.72069346 -0.8674130574
-3.216249532 5.797476423 -0.8016272897
-3.117529063 5.78049331 -0.9414442585
0.7664409063 -0.124096286 -4.265611538
4.413550959 1.47709383 -2.550141432
4.322220997 1.50639399 -2.580551536
2.352591005 0.08491410687 -4.069501453
5.143261009 -0.676266265 -3.259841458
-3.089498861 2.92219429 -1.637409453
6.231661008 -0.738495749 -2.593161457
1.941291017 0.007164317874 -4.191981547
-0.5638790717 2.0831941 -2.37449148
5.132390985 0.82629381 -2.652861469
5.039721036 0.8526942 -2.680161514
4.653661006 0.92599376 -2.758361504
0.7450910813 -5.893365827 -3.672591516
7.578290866 -2.29549573 -0.1461364449
-2.447516254 1.815192061 -2.669631378
5.804610865 1.18779375 -2.038741496
1.201470995 2.82389431 -1.565912471
0.0125010093 2.67229437 -1.59129944
5.820730941 1.72229393 -1.612677437
-0.5691291237 -5.988545876 -3.986181424
-4.097018896 8.59519451 -6.693011441
3.410702997 2.79439374 -1.961391431
7.402200864 -3.248576235 -1.182594465
-2.662858872 2.72779374 -1.832958416
-0.6839291597 2.35839396 -2.060331416
-1.983868836 2.50989406 -2.218001441
3.995990993 1.99619367 -2.506711439
1.473850997 8.29099475 -3.815721453
1.58835096 8.33159446 -3.873021447
-2.20768912 0.186513949 -3.113691428
-5.066889285 -2.399046135 1.48943857
3.516829998 2.19449385 -2.51859139
4.072921031 1.74229427 -2.63131141
1.815087498 1.623703878 -2.92320707
-0.6739390487 2.07529424 -2.365231433
-0.4444390007 -5.301195916 -3.869401396
-0.3410690867 -5.306136024 -3.864641406
-0.2382689557 -5.312705946 -3.854801425
2.897509008 1.92459433 -2.825971425
4.717641005 1.55129417 -2.428981488
3.882101045 1.78239404 -2.676351474
3.784211033 1.79789423 -2.693561383
-0.8088191447 1.51149391 -2.774711431
-1.013779028 1.52309372 -2.785391466
-1.119798927 1.52239411 -2.78440147
3.582502954 1.414368716 -2.585319104
3.84642096 1.51249378 -2.784671367
4.215970968 1.40779375 -2.671361447
4.962660984 1.20899438 -2.461551421
1.413611004 0.007673936874 -4.195841321
-1.191588997 -4.89287616 -3.040541441
2.579522902 0.408203739 -3.409781412
5.443760992 0.203644324 -2.789221437
0.9216210403 2.38949417 -2.106951468
-2.43866904 2.95199438 -1.672291442
0.3880609353 1.57149418 -2.841991478
2.44099701 3.06029378 -1.640166447
4.035900959 0.55659397 -3.162021481
0.2764609243 1.96959435 -2.459361509
-0.8042590167 -5.502205875 -3.873941407
0.3928110533 1.88789426 -2.574911446
0.5051110463 1.90849437 -2.597011545
2.878814989 1.28129407 -2.935731516
0.0703109953 -5.762525808 -3.81358146
4.012560991 2.12879388 -2.449321479
2.67868066 0.394174296 -3.395031498
-3.730079292 5.7319945 -1.074583456
-3.653348743 5.67799418 -1.016936463
-3.558538987 5.63869386 -0.9735073606
-3.479369118 5.60719429 -0.9424659572
-3.377318888 5.59699445 -0.9322306581
-3.266618906 5.60419469 -0.9422960578
-3.136139123 5.63659428 -0.9754493603
7.200860844 -2.702445697 -0.7270524631
4.973251053 1.32899417 -2.390691464
6.353251131 0.5044943 -1.908321504
1.073741035 0.06004406787 -4.051591375
6.088650839 0.409483749 -2.209301491
5.758171023 0.59259369 -2.406191465
5.807520655 0.7527284171 -2.414846419
5.589930953 0.68259372 -2.500491508
5.412470975 0.7507941 -2.573101514
5.320780964 0.77999367 -2.603411407
3.383940977 0.6236939 -3.022411384
4.462431052 0.66669418 -3.08146152
4.558540934 0.94699397 -2.780831524
4.154740979 0.98589419 -2.824711532
3.783361015 2.98769383 -1.57538947
1.565280983 -0.728555929 -4.64218139
2.956578002 1.12639426 -2.97404147
2.29304699 1.27879365 -3.131251515
2.194724006 1.29319413 -3.14595151
7.142751935 -1.934353103 -0.3236896917
3.998791014 0.385884035 -3.18523153
1.439878276 -0.7270003516 -4.656680848
7.387981058 -2.240666163 -0.1968774599
2.550542 2.66739412 -2.018531424
2.6645156 2.48649402 -2.225591441
3.011175997 2.33949407 -2.472901449
3.896340967 2.00889393 -2.5192815
1.146191039 1.81219413 -2.69855141
2.052723995 0.61139374 -3.232281388
-1.109188928 0.336014319 -3.11363145
5.649521069 1.60049408 -1.882132434
2.7753754 0.370213974 -3.373861418
2.873644007 0.354143817 -3.357081407
2.216561006 1.43609403 -3.101321415
4.690831022 -0.525126022 -3.420711414
2.97281 0.343374002 -3.343541467
-1.290258898 -5.531376016 -3.640381538
2.902909002 2.03799366 -2.748471417
-1.026179029 -5.412145865 -3.760201403
-0.8992088427 -5.365625929 -3.806851537
-0.7733789677 -5.331305948 -3.837181547
-0.6634490037 -5.317495924 -3.852421523
-0.5518590507 -5.305295971 -3.864571371
3.068416991 0.326783795 -3.323591419
3.147521994 0.98539426 -3.022711457
-1.032389088 -4.66131584 -2.222511464
-1.132089032 -4.689556148 -2.212451503
-1.248448847 -4.705375966 -2.194141422
-1.373449101 -4.738236007 -2.156161436
-1.501828937 -4.782216039 -2.115211462
-0.9945591387 1.76569431 -2.640831389
-0.3512590597 1.88219382 -2.565601387
-0.4573391227 1.88409372 -2.568001405
3.409662011 1.99309422 -2.701431432
3.883190972 1.88339411 -2.584581368
0.5810136024 1.886400376 -2.602479713
2.6894401 2.12869405 -2.644521476
0.0455810283 1.32339432 -2.979621396
5.61227096 1.04609414 -2.29237146
7.949535534 -2.901816936 -0.7202986849
1.573021018 1.92139431 -2.616531507
2.275136122 1.497604019 -3.212813256
5.772201025 0.01411421887 -2.587641508
3.170361004 0.320154268 -3.315991455
-0.4715891027 2.35869421 -2.062481467
-3.239479049 2.22599416 -2.103941434
5.637121068 1.37779399 -2.042631444
0.3845809553 1.67279376 -2.748301544
3.778700956 1.68849437 -2.771101438
2.017506244 1.673473322 -2.654384917
3.268938006 0.306863922 -3.300941468
3.371497017 0.30016436 -3.294071474
3.694050999 1.92849397 -2.632061497
4.85418109 1.10349416 -2.548401535
-2.886308863 2.49999373 -1.993951493
1.466761024 1.92039369 -2.614841529
3.469626007 0.281674254 -3.275941417
-3.640039025 5.59999405 -1.133600448
-3.568129002 5.5379933 -1.066532464
-3.486009075 5.49399464 -1.019376458
-3.394799067 5.46589403 -0.988798257
-3.288658841 5.46489416 -0.9890184566
-3.173459082 5.47899364 -1.006001456
-3.039479016 5.50109355 -1.041064458
4.879410991 1.35209395 -2.416441415
5.984891073 -0.600285989 -2.741701447
1.309561038 -0.295175773 -4.487841495
4.795651005 2.78759434 -1.16401146
1.789656987 0.81759377 -3.246851371
1.986917022 0.78929423 -3.218571388
2.393474995 0.7740943 -3.186921508
7.414030896 -3.018766057 -1.010974462
3.085433978 0.66119416 -3.078911372
3.486699012 0.62299429 -3.013871529
4.557281041 0.64499437 -3.058851429
4.745391065 0.59919416 -3.008971468
4.928501004 0.54479374 -2.9495814
5.277741009 0.392363805 -2.790971392
5.85951084 0.07420389687 -2.452241455
6.27204092 -0.159186285 -2.202351496
6.674210967 -0.411696148 -1.934311458
1.042020933 1.71579405 -2.796551504
7.372261078 -2.166666251 -0.07166547024
3.892561009 0.383744228 -3.182141402
1.681899984 -0.603906226 -4.571131536
-0.4282390167 -4.844746154 -3.498891474
5.69573106 -0.646186035 -2.895681479
2.534565725 2.312602991 -2.032049832
-3.612299024 -3.030575972 2.165198594
-3.514098881 -2.732686114 2.628858469
1.19515104 2.91279389 -1.459844469
3.571980034 0.274903912 -3.268421546
0.1547709633 1.33469387 -2.991811477
1.679527999 1.92159398 -2.616851509
4.06490104 -0.09587572213 -3.4733615
2.572492004 2.2109939 -2.531681501
3.670361971 0.262524027 -3.254601464
4.893031025 1.47829412 -2.352011495
5.22896666 1.404833411 -2.252097873
5.074100995 1.41879379 -2.287321457
5.170911045 1.4017938 -2.268461429
0.8157209093 1.58919378 -2.863771387
0.7095609383 1.58699437 -2.859321528
5.044991018 0.96339418 -2.598711395
4.848031008 0.99189414 -2.629031532
4.944521056 1.97979419 -2.090661426
5.033301057 1.94789379 -2.055951499
-1.301619171 1.98559372 -2.468911477
5.900921167 1.47179424 -1.743057475
5.980101095 1.4193943 -1.68605746
-1.191768928 1.99439435 -2.479531535
1.082941012 -0.01974568913 -4.169021466
8.375811071 -3.094695669 -0.7174494563
3.846701828 0.1252141133 -3.524383401
2.558458999 0.465153742 -3.272441507
4.765530915 2.14279427 -2.066221473
4.67426093 2.17159374 -2.097381477
5.895700918 1.75979419 -1.450861444
5.813851075 1.80589392 -1.500940475
2.45264101 2.08359419 -2.594311454
2.334297991 2.06109418 -2.569181391
3.577686185 0.01436143553 -3.874795536
0.2468910593 1.09869375 -3.14084153
-2.720559149 -5.872456145 -2.05358147
-1.066158845 -4.860016119 -3.075151437
3.772710969 0.255323786 -3.246411414
2.314126009 1.42029433 -3.082921461
2.573357005 1.20549409 -3.05572144
5.699220912 0.173923958 -2.559431375
5.43958103 -3.23008613 -3.045941436
3.871590977 0.241973836 -3.23258146
1.526670956 -5.893806156 -3.45783151
4.769823318 1.058450461 -2.764527255
5.254071073 1.15739389 -2.406431467
5.186430977 1.63109435 -2.114881494
2.990917007 2.70399435 -2.060941432
3.786210955 1.90099387 -2.603301511
4.464481079 1.17009415 -2.61959146
-0.4576390087 2.08339377 -2.375881479
1.708838956 0.165474254 -3.958291479
3.973790964 0.23490398 -3.224671551
-3.621259092 5.53159474 -1.263755455
-3.564718871 5.44169455 -1.163210452
-3.313351433 5.162320051 -1.28512075
-3.397809102 5.36109417 -1.074972458
-3.306079044 5.33309339 -1.044926455
-3.199809177 5.33219336 -1.04507946
-3.085069119 5.34569382 -1.055733452
4.787940958 1.38089417 -2.447041415
2.553410998 0.06359426987 -4.046421417
3.361597012 0.379033971 -3.178781376
1.376600989 0.83469434 -3.263201483
1.888321021 0.80389439 -3.234011412
2.096524981 0.79679399 -3.222321452
2.600000701 0.74689372 -3.166181513
2.99119801 0.68399369 -3.104801395
3.28461901 0.63109382 -3.041881428
1.785593999 1.92219375 -2.617761412
4.65395102 0.62709435 -3.038341471
4.835791008 0.56939407 -2.977091365
3.087652993 2.9788947 -1.760566433
3.29270899 2.96799375 -1.749678434
