# .PCD v0.7 - Point Cloud Data file format
VERSION 0.7
FIELDS x y z
SIZE 4 4 4
TYPE F F F
COUNT 1 1 1
WIDTH 1262
HEIGHT 1
VIEWPOINT 0 0 0 1 0 0 0
POINTS 1262
DATA ascii
1.854500034 8.01638426 -3.783944072
-4.612571274 -2.718007623 1.818356803
-2.147643803 4.016736869 -0.6525365365
-2.62862563 4.250738743 -0.7298808167
1.837904969 2.162032729 -2.546299251
-5.070813091 -2.309219249 2.321874689
-3.999977068 5.361096264 -3.906051175
-6.005426293 1.734894388 1.813982985
-2.453910926 -2.438666629 3.379614536
-3.594242579 7.14232323 -4.530141428
-2.47938391 4.146455569 0.9166117798
-3.512066705 8.163501812 -7.000936912
-0.7209839779 3.143448098 -0.3493898161
-3.59289487 6.556906874 -3.867534016
-4.54304304 -2.840761796 1.955641959
-0.4422908816 -5.972072558 4.02576208
-3.974730917 -3.085879171 1.255748854
-5.047415383 6.30634363 -3.314739318
8.57539177 -2.799991392 0.8104737381
8.574590582 -2.650594466 1.139136271
8.71197903 -2.404890073 1.037110886
8.401993783 -2.414265065 0.9503264844
8.643422316 -2.533042032 0.5479971809
8.470109835 -2.718423639 0.311270583
8.663216453 -2.523552435 0.1728815873
8.525512937 -2.812411872 0.5524098513
8.800946805 -2.834501236 0.375872512
8.796981985 -2.450815797 0.3086081603
8.591613804 -2.736408935 0.2048375413
8.740114432 -2.721011042 -0.04081584634
8.571120449 -2.620161862 -0.1245332416
8.290905947 -2.63757426 -0.3911615129
-6.04583303 0.1523411157 -1.220045567
-6.265950294 0.1131196391 0.04984278935
2.493628448 1.225685397 -2.803885892
-4.767599412 5.486651431 -3.420382997
-3.57803556 7.543811942 -6.625048103
-5.56725009 1.431126806 1.78773985
-5.583748315 1.107222358 -0.350004481
7.040130485 -2.723747237 -1.072380694
6.898180999 -2.96590736 -1.397223247
6.797048631 -2.902668726 -1.478577685
6.612359788 -2.516302116 -1.513945482
7.061715945 -2.737714832 -1.626430195
6.615141724 -2.911983336 -1.639956512
6.606036786 -2.601725408 -1.737561436
6.707033481 -2.771290531 -1.693107876
6.893221878 -2.805034449 -1.962265385
6.831839062 -2.532954743 -1.833935079
6.68655612 -2.831503687 -2.050770364
6.37963665 -2.734439709 -2.011041627
6.298904085 -2.783599037 -2.133776476
6.106292412 -2.756522657 -2.237432434
5.926734832 -2.943770513 -2.712842721
5.822037627 -2.838017115 -2.470084292
5.908140829 -2.775402187 -2.823718215
6.018393163 -2.914780422 -2.662357727
5.38942211 -2.713531636 -2.878231347
5.733295082 -2.924290866 -2.78366161
5.375040717 -3.079290106 -2.972954194
5.163533933 -2.739760095 -3.240019365
-2.838066627 3.047014458 -1.561927935
4.775026806 0.8172220254 -2.872223899
-1.400996302 3.10352929 -1.444478581
-0.4532688672 2.019876225 -2.15924142
5.26531538 2.733000143 -0.8522367582
-5.729721649 1.400973683 0.06641801946
-6.504452121 2.099374464 -0.1228315601
-6.491169804 2.116313568 3.016487183
-6.287199699 2.254116516 -0.4041433448
-6.33687871 2.13045279 -0.1979702889
-6.543511493 2.106561159 0.7786473365
-6.57991117 2.649931579 0.4283442281
6.643105508 0.7273433453 1.694149327
-6.243457999 2.365043397 -0.712007934
-2.346864539 6.53672776 -1.451291
-4.964473185 5.317682896 -3.238273938
-3.411222354 5.77932301 -2.307447057
-3.50320234 5.80505508 -2.186436563
6.872972757 0.3202675101 0.08372195922
-3.731707547 6.47785081 -5.15427275
-4.624997544 -3.012866328 1.134955412
-3.803645095 5.220639021 -1.72691544
-1.698535225 5.221614222 -0.4922147848
-2.340691984 6.824392509 -1.156669547
-4.775318725 -3.080656889 1.233422918
-2.20914681 4.312062608 0.3756829131
-1.997530579 4.500732066 0.06134856297
-5.139786753 7.008675343 -4.257719024
-5.73489425 4.700302612 -0.479559946
-3.55504132 6.246157351 -2.828017083
-6.969952806 2.581156802 0.9034927837
-2.669158673 4.719185099 2.071094937
6.810205659 -0.2075604885 1.956268447
-6.477085544 2.675690326 -0.4559082029
-2.385021461 4.723717009 1.79156842
-2.369816329 4.442049907 1.587226919
-2.127091519 4.298868025 0.4379630153
-2.558368828 4.205102356 -0.6833363728
-2.615011232 5.136315206 1.058515962
-2.390497492 4.122083364 0.497516302
-2.138994219 4.470100477 0.2368356681
-3.619554987 6.162946326 -2.747283816
-4.417188997 2.002038536 4.437797457
-4.445078645 2.176432964 4.316454816
-3.499660578 -3.315470196 1.220053356
-3.513425991 8.135914863 -6.805187174
7.347666095 -0.581818732 -0.7030988181
2.030116213 8.048979648 -3.527839923
-3.894756965 -5.930143242 3.134029825
1.11149701 8.929255158 -3.002975192
-0.6057750919 -5.911900819 4.202293986
-4.447883092 -2.819180162 2.049738935
-3.643139166 6.772049095 -5.936829158
7.011307922 0.1066146957 -0.7548770851
6.851332158 0.06446412079 -0.9981859738
8.80283045 -2.428900892 0.867607071
8.509667336 -2.414650546 0.7592786759
8.820977852 -2.58953569 0.2972359245
8.829443532 -2.420745466 0.1793739534
-6.411004014 2.027715355 1.179900962
6.698216545 0.6208485188 1.50202787
6.810765975 0.6140906103 1.107182333
6.845579635 0.3576600216 0.9426573469
8.42658034 -2.247821733 -0.1211028799
8.538013163 -2.591289883 0.00420404601
6.899871324 0.9868207277 -0.764172403
6.891227677 0.6080165799 -0.6593003175
-0.7516092048 2.903202413 -1.821530206
-5.154920911 1.423271249 -1.361458038
-5.442273046 1.420547313 2.063518474
-5.518126375 1.568690791 1.672062527
-5.764499054 1.358505804 0.9727108736
7.020900563 -2.42220808 -1.026358074
6.978687652 -2.482952407 -0.9113207261
6.788026275 -2.664831331 -1.227080844
6.736913041 -2.816769998 -1.151261346
7.061987325 -2.38899644 -1.145098967
7.107553068 -2.825619111 -1.525277779
6.621038926 -2.529911155 -1.335515663
6.5486729 -2.610361323 -1.655390811
6.552978563 -2.462861853 -1.826649051
6.631103162 -2.403296702 -2.00072961
6.562404863 -2.503501164 -1.984270204
6.608040855 -2.655309116 -2.183028718
6.308614722 -2.475658925 -2.28486516
6.624134571 -2.904533964 -2.081197804
6.499015247 -2.889013524 -2.309674766
6.314850646 -2.619454362 -2.283422046
5.887241292 -2.461657324 -2.547207337
5.878587682 -2.683263396 -2.752693911
5.797712644 -2.880125509 -2.604007676
5.588660636 -2.741220123 -2.673343491
5.775552063 -2.584794587 -3.203363621
5.686419338 -2.892258071 -3.099475409
5.592346499 -2.945354366 -3.347609953
0.1217497622 2.776051932 -1.375453098
2.197222868 0.686734057 -3.053677144
4.784471657 2.807917024 -0.9001840632
-1.712480033 3.057811382 -1.850957458
-6.485182788 3.808576778 2.630210008
-5.817234228 1.143842741 -0.1133091681
4.615952339 2.413194318 -1.319591097
-6.65650703 2.504266865 2.942314207
-6.389941701 2.529689524 -0.8304589233
-4.960528412 6.956211458 -4.349489504
-6.476053906 3.54772877 0.6531239531
-6.822975842 2.555575607 0.2578443804
1.744543583 7.39620914 -3.260686453
-5.974361302 2.483509037 -0.9668604058
-5.89390889 2.428441938 -1.027887853
-3.79121257 6.387920502 -6.129291879
-3.648703476 6.708605996 -5.003529527
-3.657972955 5.857585518 -2.479050581
-1.271755973 5.667040601 -0.8137873547
-3.728294901 6.669812958 -5.434116588
7.026729044 -0.2855562501 -0.7793275581
-5.090896113 1.583129569 3.717880235
-6.785418315 3.048271397 2.071091232
-3.690256199 6.805989585 -4.379880963
-3.468930999 6.547930329 -4.235245716
-4.145704425 1.617564525 3.202951129
-2.171310571 4.587362688 -0.0143902276
-3.589569103 6.306807825 -2.83678478
-0.2156864518 -5.84931987 -3.869215918
-6.257321465 1.711371735 3.070509478
-3.303127896 6.117626126 -2.848274072
-3.3972873 6.786290984 -4.753684365
-2.238227506 4.375913535 0.5616740915
-5.119590547 1.280507129 3.097808272
-3.408554851 6.263711917 -4.741068983
-6.438060817 2.585237662 -0.1655855096
-1.322324479 5.637633132 -1.241210105
-3.653800136 5.767651663 -2.985136534
-3.5447865 6.023259822 -4.386806213
-3.641881136 -1.483659933 3.32322069
-2.478790307 5.084447329 1.198312166
-2.145643211 4.178267901 0.8742686357
-2.343420404 4.188192592 0.6461347119
-5.431611881 2.073468742 3.836887994
-1.907303803 3.233590487 -1.959100071
-5.7639419 1.403834767 3.416409565
1.585858228 7.026658014 -3.305888272
6.654970086 -0.1220265912 -1.469030337
-2.53383302 4.923814548 0.6061441125
1.90875043 8.421367218 -3.702186989
-5.982524077 4.207742522 1.709248391
-5.240909232 -2.254467582 1.284426213
-3.406362072 6.971071484 -6.519608659
1.678287325 8.072106948 -3.683012049
-3.64761536 6.411651315 -3.014502995
-6.087440611 4.721477414 0.2511704304
-4.805853666 6.263972867 -3.391048868
-3.777478142 6.785295301 -4.569474228
-2.016229828 4.204655888 0.004783459327
-2.771851754 4.97369367 1.783339816
6.816198205 0.6889602006 1.497490199
-6.19448317 4.928607212 0.02882169048
6.615315474 0.6524884078 -1.719638393
6.743644652 0.5650346678 -1.287514026
6.921963695 0.8984461967 -1.155404524
6.852621481 0.6544038278 -1.066621114
-6.477332321 5.380866506 0.9580767695
-6.131478881 0.6251126896 0.6829178756
-5.918781834 0.9553581598 0.8350627078
-5.910740133 1.55439154 0.8546129016
-5.855770878 1.168587154 0.6358781731
-6.195549094 1.139946058 0.6683444189
-6.427155644 4.734980053 2.303164722
6.824758924 -2.559586385 -1.131645116
7.220513569 -2.592794901 -1.070904109
7.098842172 -2.637270605 -1.205694656
7.024331562 -2.277819373 -1.196451883
6.705682995 -2.562115557 -1.450112348
6.833037662 -2.253996603 -1.707195796
6.749967695 -2.48181817 -1.781080437
6.790200124 -2.678871554 -1.505799328
6.630033306 -2.475350106 -1.714232563
6.587813788 -2.566728913 -1.870169443
6.784398167 -2.520450323 -1.97851353
6.602463641 -2.540820068 -1.960292291
6.208894731 -2.520066112 -1.96493336
6.410763058 -2.527436014 -2.13884906
6.20188142 -2.545113349 -2.531171582
5.978273225 -2.773824726 -2.362736982
6.056775949 -2.325299561 -2.735853358
5.837132789 -2.484702922 -2.890972662
5.818647457 -2.755445527 -2.941802675
5.712020889 -2.543230787 -3.019894178
5.522230383 -2.69043234 -3.148896617
5.783451382 -2.495075782 -3.267570598
5.382591033 -2.760264844 -3.297028384
4.23939991 2.457870407 -1.809915568
-0.06850143527 2.910828426 -1.314551442
-0.4629952093 2.959883673 -1.151803956
-5.870711357 4.577300893 -0.3291238787
-6.87810706 3.280512779 0.8335391314
-5.780462098 3.494511756 -0.9141894754
-5.738922114 1.444249437 -0.2884198157
-5.656127522 2.084485995 -0.7578823049
-6.830383702 2.432634086 2.935136578
-6.302558025 2.30165217 -0.7930656913
-6.604282276 2.41436779 0.6228667005
-6.541841653 2.526248561 0.7109367966
-3.74913929 5.745103225 -2.38872523
-6.11618171 2.749372738 -0.2975250418
-6.239516975 2.466368346 -0.6258542722
-3.502188499 5.611683999 -3.582980336
-3.36632415 7.015811383 -5.863546708
-4.927047468 5.497482206 -2.293375341
-4.219608738 -1.892871924 2.855565461
-3.713586426 6.41611832 -3.446075478
-3.700468616 6.703445872 -3.279345536
1.709373774 6.910987283 -2.684587192
-0.08253219984 -0.2288930114 -3.638882906
-0.3018199442 5.870804544 -0.8953343778
-5.161618712 -2.171405283 1.439818135
-2.178296512 4.725128684 -0.341403006
-2.345701665 4.574818748 -0.507847031
-0.4428130117 6.483602776 -2.302540353
-6.444175583 2.084256077 3.064624208
-1.019044917 2.592160786 -2.156690876
-6.064958817 1.603446158 0.5135391495
-4.999504974 1.512489013 2.718786748
-4.352182055 -2.018520446 2.837781035
7.00918684 0.4118010623 0.9025066632
-2.999606186 4.981519808 1.557928503
-1.254817609 5.250005931 -0.9339007199
1.5209565 7.116526947 -3.279630651
-4.690028904 6.31788586 -3.977600765
-2.92939049 4.133986597 -1.528427563
-2.3048598 4.240983203 0.1667409881
-3.727121023 6.241679065 -4.261509204
-2.384471756 4.583996245 0.9014843471
7.324606591 -0.7383174162 0.9435007107
-2.421378297 2.978323828 -1.990155469
-3.523355962 5.756035526 -2.786988003
1.937205721 7.156083254 -2.621978189
7.176233433 -0.6074622982 -0.5862720409
7.123448048 -0.5129801147 1.271027505
-6.159343221 0.5424236108 0.863737236
7.127774416 -0.4589598196 0.7045289554
-2.704745126 5.095011733 0.5260050379
-2.164077218 4.64205976 0.7088412244
7.001808322 -0.8357875093 0.4214701099
7.224322637 -0.5975535586 1.606096457
0.9750086234 6.664802241 -1.902233946
6.932006024 0.8939241819 1.435729137
6.891918024 0.6661326573 1.365961081
-5.594494722 0.0434281192 -1.478902417
-0.7906486688 7.868419699 -1.755556671
-6.057230334 4.037593437 2.287774917
-4.900043075 5.498465601 -1.980255801
-6.278143376 3.55738827 2.815731244
-5.134082479 1.813501927 -1.499505408
6.779198107 -0.8837325506 -2.160855984
-6.805829778 2.195914467 0.783922591
-6.102957028 0.4969768654 0.4789116974
-6.32903438 4.317293525 1.32500381
-6.477630596 2.983243907 2.634138529
-6.036344315 0.9151298868 0.6418795966
-6.17056126 0.9837994947 0.6895416229
7.252925449 -2.523499984 -0.5987744373
6.889366196 -2.173372086 -1.06915331
6.988100194 -2.19385067 -1.09682156
6.832095935 -2.178248566 -0.9787586711
7.197734927 -2.253629953 -1.387715087
7.04321822 -2.165152418 -1.482224177
6.756677654 -2.241182213 -1.229072226
6.83672665 -2.214544883 -1.64001834
6.834323648 -2.212598653 -1.725634365
6.735109073 -2.2765328 -1.751616836
6.941130152 -2.117322763 -1.699946739
6.833711203 -2.147737753 -1.771332795
6.75525804 -2.567166344 -1.812100079
6.428043315 -2.578723746 -2.027805667
6.292024375 -2.583462905 -2.119700764
6.113917267 -2.189312293 -2.040145236
6.346777073 -2.496284248 -2.345170957
5.913823903 -2.336745992 -2.591551038
6.038273221 -2.565551702 -2.331735637
5.82327341 -2.454378546 -2.795501093
5.882874723 -2.218565115 -2.935257233
5.565427375 -2.646603631 -2.832025843
5.728689412 -2.277871061 -2.804960726
5.391322205 -2.241323379 -2.91014994
5.570374548 -2.529786109 -3.047268394
4.0321279 -0.5469024743 -4.123443516
4.15981148 2.654039882 -2.147802478
0.3627940555 2.283932303 -2.072443346
-4.403004831 -2.476973118 2.10432861
-4.369312146 6.395232512 -5.246398268
-5.495438777 1.047262151 2.216699916
-6.171268596 1.238527003 0.3424778606
-4.460893559 -0.6301634914 -2.677556981
-6.623594587 2.125889176 3.139485053
-6.18194062 2.529347394 -0.7734259647
-5.613297152 4.420529762 -0.8161108693
-6.684005454 2.333272328 2.181591676
-6.366735511 2.404736185 2.131654795
-6.507737885 2.589041271 -0.08060177084
-6.534891457 2.505637273 -0.2663096756
0.9466038523 6.268271396 -1.981888771
-3.444283091 7.344696667 -5.857800083
1.487569946 6.983759927 -2.22126737
-4.665910657 1.441910172 3.663033197
-6.203895211 2.003095953 1.380079681
-3.316389483 6.512735511 -5.070005643
0.4319786286 -0.3058138634 -4.038848247
6.757212597 0.5253698348 -0.9254204098
-5.826533369 2.156379802 -1.028507019
-0.2649691839 5.834608762 -1.174249542
-3.004688542 -2.568939986 2.903652189
-2.505943691 4.51170001 -0.4398059244
-3.321958222 8.014803788 -6.761011656
-0.322119713 7.634582776 -2.514305561
7.130941351 -0.5487997893 0.9565534215
-5.909439682 1.036897304 -0.03747354687
-3.535264158 6.223515 -3.058683335
6.676939848 0.2702510189 0.8047567538
6.984638611 0.5570113566 0.8657209856
6.941047519 0.4226245585 0.7559507278
-3.653165929 6.98509278 -5.867432029
-6.821880085 2.997757307 1.372812474
7.198467221 -0.8167956655 0.2142630034
-6.397211833 4.112884478 2.902167925
-3.715801292 4.825389988 -1.881125145
-6.311588987 1.972638956 1.320201445
-6.084869079 1.846243375 2.120909178
-3.726450987 5.924190984 -4.909786724
-2.73474517 5.264063572 1.014301544
-2.461842816 5.526145329 1.131112298
-3.743336849 5.30618895 -2.560429157
-3.556512588 5.641750728 -2.648103989
-3.404520747 5.498077524 -2.688834384
-3.578855384 6.894804066 -4.328460328
7.368113215 -0.6912116222 1.316212073
-2.555241628 -2.609235005 2.543989411
-2.68848459 5.120015451 1.838701537
7.105780586 0.4290039402 1.011832828
1.687386815 8.533562836 -3.675541894
1.804242116 8.520081963 -3.903901944
7.218316322 -0.8680449801 1.43184315
6.993528435 -0.9935591151 -1.545264658
7.214137021 -0.6596179096 1.640793899
7.168630898 -0.6947226608 1.146656071
-3.764389278 5.612405274 -1.997472993
7.399879453 -0.8502070984 0.4465694823
7.081353856 -0.994104203 -1.624781699
7.024374127 -0.9703511202 -1.454464143
-6.003105028 2.697435035 -0.9539229792
-4.252298178 6.781442405 -6.167060522
-3.377299514 5.754966278 -3.28239904
-6.168567264 3.921125724 0.719318164
0.1323406567 -0.473223981 -4.104488171
7.349194885 -1.999752765 -0.5511467962
7.146979652 -2.033672585 -0.5750880925
7.052968586 -2.227876643 -0.5228796598
7.372672247 -2.039104623 -0.6632848252
7.273744956 -2.323600608 -0.8355991779
7.126453741 -1.954569437 -1.217542487
7.291062523 -2.063539304 -1.310275245
7.033757278 -2.396524016 -1.122236088
6.96244461 -2.048803154 -1.234078018
7.092381214 -2.254083285 -1.195676954
7.093954278 -2.114066521 -1.592105768
7.113506257 -2.03689917 -1.395603584
6.563106483 -2.037643883 -1.813956165
6.747379147 -2.104302869 -1.817176303
6.543992745 -2.211905384 -1.976009371
6.655641438 -2.412952856 -2.023562681
6.569942307 -1.9804551 -2.071002595
6.352694125 -1.991439776 -1.960978923
6.355884557 -2.222979339 -2.39414381
6.262157497 -2.085089272 -2.133608098
5.957496591 -2.37182773 -2.280578436
6.220053436 -2.157526418 -2.776015789
6.07277859 -2.287496108 -2.737225797
5.766444132 -2.369505412 -2.75296505
5.622375903 -2.282753161 -3.098649732
5.65991947 -2.06543258 -2.855093882
5.398101975 -2.208827772 -3.22512492
5.507433099 -2.41260185 -2.951420925
3.924531064 -0.3570866604 -3.702382151
-6.312724433 0.4984755714 0.09986993117
-6.50539383 3.045026984 2.72520408
-6.508050842 5.812756615 0.68317226
-6.079705735 4.311414073 1.481046472
1.408896061 2.871438558 -1.406897241
-6.120575228 1.302231279 0.3377741134
-4.388594063 -0.827620091 -2.579159356
-6.485584326 3.316954416 0.3739857471
-2.511577767 -3.774276995 0.4163455246
-1.261809875 2.489825157 -2.08507691
-6.386527373 2.602416573 1.864855399
-6.469009333 2.447992918 1.616201759
-6.44784683 2.833002189 -0.2760113235
-6.379436306 2.7832608 -0.1189721581
-6.59496789 2.496800346 2.080154307
6.940559387 0.4194181788 0.7284346329
-3.574405869 6.838488942 -5.599131635
-3.410431416 7.166719077 -6.107644503
7.097366479 -0.697233195 1.445435221
-0.145873239 -5.835780875 4.437764423
-3.710560352 6.771835657 -5.137115254
-3.685917972 6.443668932 -4.789327776
1.570129698 7.060947505 -2.624033535
-6.221908752 5.528578975 1.090660873
6.921271182 -0.1197563182 0.870214428
-0.5341009485 5.680061021 -1.219378058
-5.972717752 1.698608807 3.509810106
-2.112101317 4.499474304 -0.3392251353
7.317833486 -0.2404541164 -0.1711734023
-5.94879409 1.452778665 -0.3903123614
-6.16695017 1.813690275 -0.1515835821
7.152698137 -0.8901229556 1.62957211
-5.875250645 0.8701710478 -0.4071508463
-3.657211301 5.44261449 -2.028081425
-2.652614803 3.935626513 -1.051795278
-5.215144716 -2.098781841 1.732024674
0.6170582088 6.598077392 -1.709760284
-3.413341462 6.46496084 -2.956106754
6.573409877 1.115659607 0.4857638917
-3.5635657 6.984878485 -5.001729803
-3.709928949 5.559700107 -2.742880797
-3.732434079 7.645175096 -5.259502778
-3.469724202 6.323594552 -5.581672912
-5.481831644 1.61185766 2.161453993
-3.44275189 7.750374456 -6.540963656
-2.594032633 5.46968862 1.217510962
-1.367660815 5.441194654 -0.4966933674
7.064634494 -0.9743577816 -1.398691879
-3.74826793 5.553152233 -3.668943949
-4.451855168 -3.452517679 1.125648054
-4.273794491 -3.494375228 1.045522113
1.605349105 6.813994809 -3.024801888
-3.58880085 7.074540672 -6.846246262
-3.30690304 6.964821249 -6.224234033
-3.30550208 6.82572045 -6.112222949
-3.625730326 6.737466326 -5.906850648
-3.776235808 8.070011241 -6.309705257
7.300611133 -0.717126023 -0.3041982095
-3.763406352 6.597089503 -3.313201711
-6.633852086 4.168238346 0.7386730387
-3.782850004 5.801512973 -1.723931018
-4.589858252 -2.697299813 1.022563458
-4.428346905 5.17957414 -2.68154354
-3.666819323 5.958199227 -3.937417841
-2.524146016 5.728093614 1.532416731
7.273441677 -1.813061595 -0.2896066983
7.293934728 -1.815702177 -0.2009624049
7.430967117 -2.087067291 -0.1101853771
7.361637856 -1.862516605 -0.3574809225
7.345988079 -2.00586855 -0.4404664509
7.344594256 -2.211862135 -0.4392568523
7.141924865 -2.268516231 -0.6022090199
7.234531103 -1.915455714 -0.5253229003
7.129305368 -1.793424763 -0.8343106292
7.044779666 -1.944920778 -1.126838246
7.321927071 -2.065536943 -1.31907873
7.117873806 -2.230350857 -1.380557518
6.761758129 -1.85224184 -1.5074505
6.96788195 -2.053828024 -1.168754502
7.10777229 -1.841774726 -1.526158046
6.842021695 -1.893781642 -1.761240389
6.601250038 -1.850881687 -1.907744511
6.662287766 -2.220163002 -1.982261192
6.882645056 -2.240750078 -1.909247072
6.457347392 -2.08416149 -1.839444393
6.568899415 -2.051751137 -2.066020812
6.176127055 -2.147014366 -1.967118505
6.411022467 -2.324836274 -2.104009727
6.35078015 -1.961655723 -2.216215126
6.352198097 -2.341563056 -2.531869128
6.268909948 -2.099281319 -2.482772874
5.893178602 -2.276466302 -2.437528515
5.844406912 -2.104912683 -2.896984025
6.068666648 -2.262309172 -2.659808758
5.634035915 -1.927043145 -3.036895532
5.820121137 -2.109233213 -3.261129574
5.427741699 -2.037202202 -3.081152589
-0.9657201855 2.511666389 -1.613625137
-6.196127206 0.4008861301 0.2355519359
-6.208568236 4.195919469 -0.3088286015
-4.368857551 5.955366413 -4.294286773
-5.555761317 0.5956871735 -1.358786245
0.9654390293 2.963806888 -1.762557679
-5.812929677 1.477435251 0.7853815895
-2.222332847 6.383542373 -1.440679
-6.288030993 1.589194566 0.5248907552
-6.270756261 1.950077985 0.3950870138
5.609918405 2.20515524 -1.464303608
-3.287978733 7.620338145 -7.113804231
-6.402569558 2.413354836 2.013104536
-6.450470009 2.767202094 0.2853437594
-6.665037479 2.667918855 -0.2097476544
-6.853216405 2.508726845 2.346362425
7.177138592 -0.2488755127 0.9046899809
7.345467112 -0.2565395931 0.9829274768
-3.465130124 7.103392678 -6.25941958
-3.398761258 5.093850994 -1.302478041
-3.76280219 6.584274541 -3.527141669
6.939944746 0.4743911513 -0.00307303958
-3.61231772 7.441275747 -6.527982206
1.591927621 6.748755414 -2.731561604
-3.044132562 -3.216363248 1.458004002
-3.724893912 7.048776894 -4.290209518
-3.359695967 -3.572448565 1.376580206
-2.485237509 4.400006149 -0.1707798693
-5.345794482 -2.103429957 1.309907257
-6.230282954 1.720309975 -0.01295727287
-6.1573277 1.776593253 -0.2985159381
-2.207240937 5.438891685 0.4567103969
-2.674433283 5.62284467 0.4145833634
-6.371625226 4.013864159 2.961044247
-3.504747333 7.054054584 -6.13949061
-3.450165948 7.140452742 -5.988698205
-3.960724855 -3.049305929 1.394869846
-3.594107459 6.691825341 -6.025318313
-3.456628181 6.909969596 -6.527406958
6.770129276 0.788909929 -0.03622790194
6.931456933 0.8229712819 -0.181175947
1.391609243 8.308218147 -3.524757062
1.67593096 8.258947396 -3.625892887
-6.596306716 3.301391417 1.670591608
-2.520971398 4.423542134 1.344636017
-4.175464343 6.126617511 -6.115415456
-6.517997515 2.917964521 0.02443104441
-4.226305191 -3.079220317 1.499066526
-0.9367590769 5.561473578 -1.018957381
7.081139038 0.2951411282 -0.02601353935
-4.904629768 1.499229283 3.163828033
-4.58205793 -3.253230866 1.057525341
-4.002791784 -2.768873234 2.557989049
-5.986840811 1.805059053 1.591758195
6.955800526 -0.5207850352 1.257730518
-3.414619688 -5.985682405 3.59418557
-3.41372613 6.894371337 -5.708263234
-3.600565198 7.093261085 -5.456245264
-2.552091327 5.347277467 1.062704183
-2.734109978 4.516865047 1.321419737
7.412413128 -0.6754162068 -0.282451906
6.967283501 -0.4716947925 1.303242946
7.410308784 -2.024074313 0.4563665084
7.474451514 -2.03821385 0.3705949901
7.489808831 -2.099430207 0.08894188536
7.170438441 -2.063043452 0.1760651072
7.214700385 -1.804477632 -0.3238387465
7.102938181 -1.821945433 -0.2402101453
7.493183469 -2.086606368 -0.2134156235
7.391401849 -1.823366439 -0.2841768332
7.140106188 -1.747397424 -0.4473762832
7.38571283 -2.071723776 -0.7613979457
7.165250786 -1.94013501 -0.8608988284
6.989633257 -2.095528016 -0.9974060417
6.934104164 -1.735417229 -0.6578666908
7.104478613 -2.048336075 -1.061219126
7.269579068 -1.678910431 -1.203789454
6.826125414 -1.993596521 -1.23055604
6.762385064 -1.81187303 -1.461224239
6.750261557 -1.79723798 -1.23774622
6.742464904 -1.77787056 -1.576443033
6.754601714 -2.105340046 -1.704928459
6.55072549 -1.836174819 -1.496551393
6.469082864 -2.051872313 -1.851340868
6.568614187 -1.773102447 -2.105329928
6.601607809 -1.925722426 -1.806314334
6.354652869 -2.148755882 -2.256982434
6.391420042 -1.937307898 -2.127199743
6.081996836 -2.194740617 -2.240474765
5.99240187 -1.756295848 -2.224102602
5.96763739 -1.926823571 -2.651639121
6.260716309 -1.938830438 -2.661663926
6.061951046 -2.239006771 -2.780572607
5.785555607 -2.071467835 -2.980128376
6.085635995 -2.015772073 -2.692107433
5.540497585 -1.834803596 -2.891584124
5.717817684 -1.865154578 -3.06314493
-1.92397324 7.373785761 -1.672613145
-5.794856063 0.3705800679 -1.263538606
0.3183339898 9.059779926 -2.209070983
6.911189117 -3.116456761 -1.126367152
-4.17926285 8.295564993 -6.544147862
-5.458726966 0.8151034346 -1.302635421
-6.199093466 0.6114449553 -0.1639347384
-5.933639311 1.061965933 0.7974945212
-6.071493018 1.201659879 0.7694851027
-5.739611234 1.158256172 0.6127263913
-6.159640687 2.036033491 0.08861847382
2.517703931 0.6848127225 -3.526105426
-6.499274072 2.336036964 2.698128916
-6.836646237 2.589715095 2.492316445
-6.905429973 2.748525845 0.1437303326
-6.860006182 2.829226232 0.4460837149
-6.487488758 2.824896698 2.191742124
-5.873649837 3.189013142 -0.9706826737
6.99661451 -0.01803088441 -0.5763802961
-3.711954455 7.242154068 -6.579100192
-3.496872723 6.948368999 -6.236822502
7.277115633 0.3706408796 -0.05199204086
7.005685667 0.2457948557 -0.008872283378
-3.707023249 7.1496815 -6.458256674
-1.165132968 0.3914903424 -3.164422635
-2.431627465 4.88952207 0.03606222258
-6.314489342 1.744546238 3.282555352
-2.494019094 4.382327933 0.8078908638
6.962914422 -0.6295892975 1.656490734
6.867132049 -0.6204749273 1.942640577
-2.893590901 5.458407537 1.354571579
-2.529701206 5.207790644 1.426200704
7.115088994 0.02241524083 -0.6234964264
7.054157778 -0.7301189568 -1.465478789
-6.258576356 4.810398839 1.33986131
-4.332222611 7.287137246 -5.955939875
-6.589704661 2.521497846 1.074786369
-6.390960039 5.294772741 0.3418769522
7.072736915 -0.5556392426 1.441944156
-6.603094855 2.166054911 1.455250709
7.065808349 0.9704847882 -0.2096897634
7.007418573 0.7316464538 -0.9756987038
6.333613518 0.5262855774 -1.532553169
7.014713503 -0.2502794513 1.292158434
-4.926412973 6.604110557 -3.005970058
-4.506108319 5.131240567 -2.179294514
-3.515830096 6.555211187 -4.161872836
-2.24099711 4.944459248 0.1889315911
-2.718138047 4.536135031 1.578515307
7.0314143 -0.6007680122 -1.245511543
-2.02282251 3.817701912 0.6570085403
7.030299704 -0.2728671149 0.9781611103
7.020626568 -0.45441658 0.9159014669
-3.390763563 6.857738524 -4.872989871
1.279830187 -0.08627365681 -4.374360555
7.030484037 -0.3584478648 1.447929522
0.1259163848 5.913555019 -1.262571202
-4.393007801 8.410100553 -6.243274445
4.853089847 2.706022732 -1.695075613
-6.070907668 0.3166435951 -0.4663325255
-4.602115371 5.649600566 -5.074954102
7.259631471 -1.533077665 0.5247493133
7.494352831 -1.579246789 0.2216644442
7.510933886 -1.904004555 0.4800686671
7.453965409 -1.616778402 0.4341168132
7.369820823 -1.816494012 0.1702347818
7.414735641 -1.803746338 -0.09882844436
7.301836476 -1.537762571 -0.01109410489
7.50136864 -1.749867805 0.04774085963
7.440180152 -1.811064576 -0.3017426511
7.529235574 -1.512345726 -0.4205270985
7.431620516 -1.535971129 -0.5990625233
7.257594209 -1.613263161 -0.7857876463
7.379883134 -1.888462791 -0.6853326547
7.141602816 -1.625900987 -0.9087221756
7.169489933 -1.864446276 -1.096403247
7.325167043 -1.888155731 -1.108890878
6.89338061 -1.751307727 -1.187511461
7.105831874 -1.645321585 -1.400254652
6.872535797 -1.815860558 -1.083048673
6.772113477 -1.64373114 -1.143725284
6.694424477 -1.854521585 -1.336188535
7.054021842 -1.903701297 -1.504121342
6.883222621 -1.830594031 -1.586777408
6.707474708 -1.571237882 -1.754993925
6.624638109 -1.710508014 -2.046044686
6.555880301 -2.026042621 -1.908809447
6.468703015 -1.639026129 -1.92332989
6.332433662 -1.737319357 -2.27379397
6.248920061 -2.033534026 -2.476909612
6.403223503 -1.588933961 -2.374600766
5.965522919 -2.037717144 -2.694258116
6.248311138 -1.870986846 -2.38329725
5.938034994 -1.802075059 -2.585562208
5.718007846 -1.760658791 -2.622423452
5.632460846 -2.077275426 -2.854037148
5.990282442 -1.630223485 -3.170532152
-6.466458586 3.170853693 0.3201761432
-6.454979973 0.2790708705 1.406042913
-5.612555643 -0.0820017735 -1.482671345
-4.478282925 6.897288156 -5.359741273
-5.937329003 4.217163136 0.2340096133
0.3443952562 8.237536693 -2.824764312
-5.491157335 0.7597402489 -1.392396477
-5.70538376 0.7347721838 -0.704965977
-6.335690472 2.906402581 2.308752228
-5.419099594 4.631204749 -1.067446149
-5.968693441 1.249938734 1.097652059
-6.257779487 1.688785753 0.02481463795
5.854423625 1.764670574 -1.224975202
-3.425493391 8.053146592 -6.475051514
-6.441230608 2.53056154 2.540457469
-6.529457046 2.526066269 0.6150315869
-6.792372316 2.82255143 0.333561399
1.544057968 6.682707527 -2.427331709
-6.34085932 0.1659161171 0.3409361351
-6.293584977 -0.3379184111 1.254136952
-3.586275447 7.120998427 -6.706531277
-3.245603163 7.123459579 -6.767647269
3.247872644 -0.798383428 -4.062406642
6.904666579 0.1262524293 -0.5380956703
-3.575096316 6.811900285 -3.493382425
6.998124736 -0.2835341555 -1.14282947
-4.400681112 4.978985763 -3.322939435
-2.511480546 4.514853737 0.8998343089
-3.55822362 6.02572254 -3.131997185
-1.812314678 3.753958564 0.1369553575
6.84854487 0.1133322092 -1.142369278
-2.635754365 4.698392137 0.711270098
-2.620307875 4.834204242 1.028608945
-2.339892022 4.404495612 0.6671212907
-2.422025223 4.755538538 0.8009429034
-2.345279112 4.607463646 -0.1926465668
-2.162789737 4.570970653 -0.05246925968
7.165561002 -0.3851788507 -0.7823877775
-5.752907773 1.289100127 0.8352610384
6.222158586 -1.033796803 -2.492164064
-3.670122818 5.864091718 -2.384493276
6.942289931 0.6990568247 0.6598443271
6.92375428 0.7311229459 0.4023564521
6.782521178 0.6928942879 -0.8890265277
6.996324856 0.8255154838 -0.702480008
-0.987340601 0.1982431541 -2.962190062
2.991652338 -0.2418436772 -3.897401612
-6.20224402 2.82318523 -0.3599149796
-2.368778583 4.873134173 -0.481251899
-3.633505289 7.659034216 -6.495775472
-2.203937095 2.864410698 -1.647940148
-5.115321794 1.304867888 -1.496198399
-5.58174003 0.7136588654 -0.8728182269
6.431744059 1.075140818 1.652898206
-4.627388495 6.323585631 -4.875865827
7.139181721 -1.36503342 1.069473196
-5.055489765 5.109155853 -2.355145966
-6.05271442 2.78276478 -0.9114473839
6.994085058 -0.2947774892 -1.85383081
7.137858681 -1.628320597 0.8451564378
7.345605224 -1.810707063 0.9069357376
7.219816078 -1.717317296 0.7166125271
7.362961566 -1.350195607 0.4782251561
7.155574982 -1.359793734 0.4137869104
7.396814072 -1.824738337 0.2411615458
7.563043291 -1.363236831 0.4654442851
7.481026431 -1.595591653 0.1595181934
7.098297295 -1.449988699 0.1480480738
7.416929504 -1.654762591 -0.1930769431
7.460310456 -1.359757394 -0.2142964907
7.074228645 -1.397712467 -0.1815736838
7.375512054 -1.376256931 -0.290235271
7.328675767 -1.495190838 -0.4841603988
7.14602406 -1.725922281 -0.461942888
7.099995538 -1.388298398 -0.7236209945
7.277415573 -1.833836248 -0.799553646
7.135781553 -1.480466962 -1.096065612
7.109767297 -1.430699088 -0.8886704937
7.261613425 -1.481432083 -0.9921945048
7.019359525 -1.667308995 -1.398008398
6.869030574 -1.592172159 -1.074986759
7.01547537 -1.682742013 -1.207024347
6.880215849 -1.750484918 -1.681429044
7.015606357 -1.576487002 -1.528792238
6.889626051 -1.587955521 -1.746008118
6.759771605 -1.826555211 -1.871862093
6.666577602 -1.865201759 -1.708098667
6.361380408 -1.719532676 -1.994303997
6.61333436 -1.832731396 -1.908927471
6.391546328 -1.795320689 -2.375363594
6.583437448 -1.72100368 -2.328524327
6.124682782 -1.677896571 -2.461249568
6.025582664 -1.561301128 -2.269728514
6.030758217 -1.80269845 -2.632908816
6.246008451 -1.661662821 -2.841035604
6.022943685 -1.758847668 -3.014897014
6.10733595 -1.90857803 -2.908383192
5.816170206 -1.684284147 -3.217942373
-6.544086313 3.14822947 2.206209753
-6.391177303 -0.1889178035 1.369558596
-5.641124264 0.1167454785 -1.143216053
-4.606858815 6.948292656 -5.312569283
-6.20472303 4.708247724 1.571880838
-4.842621918 8.218331858 -6.366321204
-5.519136844 0.7819397437 -1.178395666
-5.881713336 0.7333162712 -1.008339847
-5.819429037 0.8087956721 -0.9841927159
-6.247134472 4.172997425 1.977378862
-6.222898632 3.577068156 -0.860517632
-6.428578239 1.821006486 -0.008972315612
3.144547746 2.926815027 -1.85977204
-2.206820178 3.799402851 0.1518310547
-6.466930958 3.109317076 2.391449718
-6.304910961 3.428674536 1.988634885
-6.585299817 2.508892075 0.8602935491
1.618313618 8.143040693 -3.610673394
-3.645129321 6.997608949 -4.453808787
-5.202487616 -0.09456865814 -2.104290189
-2.986251002 -3.150140794 2.583416419
0.8469549773 -5.817091049 4.492083924
-0.247003987 -0.248520332 -3.782297496
-3.478464855 6.469177646 -4.528122043
-3.418644594 6.922172661 -5.388852638
-4.043112496 -3.115111041 1.932474953
-2.114627707 4.672544905 0.815229086
-2.475243462 4.527697305 1.162297113
-2.202742717 4.673670047 -0.4240247286
-2.056752109 3.705348519 0.2044415205
-2.403384179 4.775432668 1.159883413
6.78051731 -0.4683715769 1.999047062
-3.683091237 -3.114414126 2.339383757
-4.806080256 -2.896556637 0.8707403883
-2.251530449 -5.68525896 3.591993028
-2.213290681 -5.825104576 3.871408185
-2.128650669 4.407775526 -0.2528029191
-2.634726047 4.571833116 0.9220305999
-3.821479431 6.994659442 -3.645212582
-0.467483772 -5.977152496 4.273785499
-6.144248972 4.03923902 0.5263821861
7.192484875 0.2888920668 0.4281332741
7.027266172 0.4997124216 0.01989959413
6.996154825 0.8180989652 0.3361395464
-4.65564296 6.369802788 -4.143674747
-5.786483864 1.463983305 1.542649062
-2.543829433 0.7187708603 -2.810056169
-4.432688989 7.901631572 -6.074598388
-3.700559626 7.954091338 -6.217435438
-6.695505344 2.545442893 1.434056683
7.159398362 -0.6550750599 -0.2517720126
7.322856355 -0.7749832711 -0.4135084834
7.359764955 -0.6476628172 -0.2372680899
7.257657482 -1.276582189 1.473142898
7.295771483 -1.362710031 1.234926045
7.068118674 -1.474940439 1.087186499
7.351967678 -1.352424364 0.8764096324
7.498071794 -1.246395269 0.8385980451
7.261418172 -1.604204318 1.154947553
7.312707299 -1.358346272 1.061761281
7.374681494 -1.272688272 0.5925346331
7.155526788 -1.487257723 0.8134269252
7.063851233 -1.486874308 0.68532247
7.142147363 -1.399113377 0.2076295539
7.061326696 -1.547344656 0.4757302506
7.085269084 -1.523606409 0.3371338581
7.251337805 -1.466442545 0.1233931921
7.518693648 -1.268189837 -0.1949268473
7.403106257 -1.435466455 -0.1493104552
7.299464895 -1.267243252 -0.03950841756
7.328697343 -1.620393894 -0.2170101332
7.287983083 -1.485285016 -0.1535595214
7.514726367 -1.234846626 -0.3565457851
7.300444828 -1.552629075 -0.3511790855
7.206001193 -1.613420911 -0.8698892521
7.377963103 -1.552113839 -0.6406054608
7.240856778 -1.576794448 -0.6994709814
7.318268251 -1.635854625 -1.161840745
7.151456281 -1.607961907 -1.158580534
7.278579145 -1.640208644 -1.188326043
6.907293058 -1.558140835 -1.338303422
6.841859489 -1.354320384 -1.218614894
6.940519746 -1.289334308 -1.654558024
6.873229148 -1.328751317 -1.512489747
7.042672495 -1.449624041 -1.439485143
6.542833999 -1.731473569 -1.845013396
6.864017817 -1.732061236 -1.99751051
6.890850279 -1.438223667 -2.023256653
6.378241705 -1.387434565 -1.859408402
6.650442613 -1.70772015 -2.150450358
6.398546372 -1.32364405 -2.138648509
6.517656822 -1.573146381 -2.604034152
6.397630472 -1.47283587 -2.646920159
6.305658348 -1.72247561 -2.44629906
6.180468047 -1.806176998 -2.539063308
5.941430527 -1.561444515 -2.533435507
6.061125473 -1.635732005 -2.764344872
-6.259146327 0.06892394518 0.8575770831
-4.262010131 7.935098786 -6.384881105
-6.044019584 -0.06938443142 1.088215255
-5.733648265 4.627291033 -0.8060829391
-4.197692593 6.188562439 -5.57870048
-4.762907871 5.242836078 -1.563340809
-4.067092729 7.013036368 -6.032006033
-5.242031419 6.995636598 -4.399456036
-4.506648132 6.728045623 -4.921132874
-5.838210987 0.6445800852 -0.8096624731
-6.433224944 3.064974226 -0.3332675695
-6.237851252 3.78718984 2.830424741
-5.393825566 1.68531709 -1.337370154
-5.222782356 1.634840134 -1.215445921
-6.785569295 2.381741488 0.8767572618
-3.496967529 0.0433441925 -2.927218344
0.1252257884 8.547736424 -2.259391453
-6.883664668 2.853487762 0.7870249346
-3.76266091 6.637199303 -4.963708365
-3.835622573 7.154212124 -4.550482992
-3.770171703 7.244122673 -4.342195111
-3.853374669 7.041441467 -4.455520433
-6.114259668 -0.09614458435 1.120152133
-2.620074442 4.916881131 0.2044169856
-3.702975483 6.795467298 -4.8851472
-3.675509716 5.879552231 -1.887862054
-3.14043625 -2.007768436 3.164806856
-4.559213325 -2.702196775 0.8272659253
-4.560732998 1.488266785 3.747192985
-4.775484171 -2.366528764 1.815933281
-6.100767571 0.8064724395 -0.4366246474
-2.361634446 4.699583946 1.343469135
-3.50598087 5.061616583 -1.478142289
7.158728909 -0.8676066405 -0.7316125678
-3.572490853 5.884272057 -3.312475747
-3.35213445 6.966264249 -4.889684914
-3.85153659 4.737123399 -1.738928148
-2.096198929 4.653521218 -0.5224643187
-2.42125144 5.154659795 1.02702751
-3.65486737 5.965929073 -2.632793403
-3.773019148 6.625070469 -3.553226267
-3.955506568 5.889361134 -6.069711736
-3.344851538 5.871793077 -3.79954552
7.0664109 0.8287446912 0.1049314211
-3.806658871 6.235997397 -4.691252751
6.991550683 -0.117631937 0.8508829924
-4.377687096 4.746629378 -1.6555219
-4.199335797 8.256954603 -6.727130143
6.658054959 0.7725838053 -1.613169576
6.570537821 0.80889465 0.6530982735
-4.984201422 -2.854908858 0.4448864208
7.060823827 -0.7097147708 0.09419624221
7.052013697 -1.122038063 1.633403252
7.257549952 -1.356478403 1.667225764
7.367600866 -1.369811933 1.654969019
7.023755429 -1.151161788 1.335085962
7.041736987 -1.259789694 1.038096291
7.433173591 -1.162942196 1.200635944
7.122473669 -1.088824356 1.19884035
7.365366456 -1.387541744 0.9146620569
7.183652579 -1.145073023 0.7267699415
7.142746785 -1.462342785 0.6728699156
7.340644988 -1.152901684 0.8349723497
7.071454595 -1.544981946 0.4541660708
7.444952537 -1.114544813 0.2564939738
7.188050899 -1.116695431 0.3606767236
7.257729298 -1.445318801 0.0291361093
7.111235817 -1.229748844 0.2331356651
7.240003143 -1.263735922 -0.1487921249
7.065947883 -1.517123391 -0.2738372212
7.544276394 -1.44964938 -0.3591791411
7.438244391 -1.385136018 -0.4228310214
7.137487495 -1.500306663 -0.5855487649
7.352059046 -1.351484447 -0.6506656119
7.385823569 -1.563903618 -0.6096875294
7.035323823 -1.561810509 -0.648018298
7.011227558 -1.543037051 -0.7873994406
7.323759136 -1.337831863 -1.084974421
7.015589532 -1.360610071 -1.08417898
6.994769257 -1.336322197 -0.8536714633
7.198095795 -1.483147468 -1.030626303
6.957883285 -1.183657843 -1.215532888
7.061483086 -1.413535217 -1.267159675
6.964836175 -1.288109972 -1.449206917
6.658466156 -1.364292431 -1.796740615
6.663491812 -1.367320076 -1.718971272
6.56078937 -1.538663733 -1.788267536
6.976210947 -1.369377816 -1.736908743
6.671500069 -1.518993222 -2.210530368
6.57941745 -1.161520507 -2.160829199
6.519794866 -1.277706268 -2.051605006
6.57563317 -1.459792227 -2.046323551
6.380556316 -1.48701077 -2.194081597
6.56369214 -1.165854032 -2.453382322
6.44880667 -1.556931228 -2.369441851
6.280066753 -1.459512502 -2.790979267
6.145666053 -1.456933347 -2.529143723
-6.085318671 0.05397925614 1.063644641
-6.162342881 0.03667626398 1.002392569
-1.236827122 -4.78755419 -3.340738438
-6.437598122 -0.1863744395 0.7606574437
-5.992237419 2.775992277 -1.034311736
-4.073155717 6.33995556 -5.976207723
-5.687906098 4.766317773 -0.7288033812
-5.080258705 5.397913197 -1.101286178
-5.243846778 5.169780919 -1.054102532
-4.839947146 7.116819666 -3.313824382
-5.915877255 0.4807460914 -0.3973914966
-6.151465884 4.078535512 1.968828532
-6.557592971 3.790290026 2.580486737
-5.494965203 1.674064357 -0.9476099509
2.949200584 2.53517704 -1.771221961
-6.852276329 2.682921655 2.87188855
-6.437928831 2.518581179 2.869161265
-6.128727628 4.329240755 -0.9099679299
-6.740109319 2.604988319 0.98202627
-3.549712682 7.023683054 -4.732367071
-3.500802146 7.343033354 -4.955066624
-3.474875393 6.322936855 -4.94916836
-3.909285088 6.901126856 -3.624756398
-3.370391002 5.730289435 -3.807899399
-3.703178373 6.738824389 -3.544036202
-3.562539573 6.325873172 -3.61053301
-2.130800036 4.743291556 -0.3867162838
-3.730573073 4.843147664 -1.992224772
-4.07162987 -3.377093131 0.9955631907
-2.433887874 4.623275044 -0.5180743299
-2.554956032 4.405085206 1.363837022
-2.374328823 4.830097859 -0.04973187621
-2.076754873 5.135285999 -0.5976573555
-3.64017756 6.143364501 -4.665195368
-3.755608547 6.533560611 -4.378265165
7.323909339 0.1152451223 1.042904195
-3.426456768 4.797399415 -1.579568119
-2.215239213 4.695364682 -0.3953917703
-2.135779945 4.857052985 -0.7185716938
-3.678206266 -3.568454685 1.487389098
-3.689047985 6.402174107 -3.403985152
7.442634385 -0.1803463576 -0.1736642544
6.601754395 0.9235996747 1.495361734
1.78829114 8.266025456 -3.520311971
-3.273146025 6.291998838 -3.189293016
7.101919103 0.03335255003 -1.071065979
0.06668197553 5.827095272 -1.268560691
-3.507137592 6.202413518 -2.00246667
-3.553399544 7.792416541 -6.673126489
6.992747489 -1.153206742 2.065966628
7.282543683 -0.9134062818 0.1236310986
6.935746691 -1.097211908 1.82326963
7.222784445 -0.9997201607 1.636093575
7.13110921 -1.167588225 1.439068406
7.136998074 -1.388104832 1.421616452
6.982461856 -1.331322222 1.19916648
7.473493486 -1.278673856 1.269320899
7.195046068 -1.320758563 0.7861795585
7.036694695 -1.222958982 0.8723108873
7.313759482 -1.399916543 0.7140050156
7.018143034 -0.9942600651 0.6711907461
7.306853731 -1.07477717 0.5063331785
7.085205406 -1.139460606 0.7239975265
7.472650748 -1.275096397 0.3052186061
7.208669694 -1.305902813 0.5548053358
7.057664686 -1.332472892 -0.01345206496
7.47077143 -1.191952399 -0.01328546383
7.249637981 -1.374424059 -0.1732646937
7.518953832 -1.079658216 -0.007651364939
7.276119557 -1.183716608 -0.04029110672
7.054466485 -1.095815032 -0.2508701349
7.163880944 -1.322780383 -0.1960368008
7.45929971 -1.384474922 -0.641063764
7.298815655 -1.04797923 -0.5795235681
7.397937412 -1.00136018 -0.8604084418
6.969414083 -1.398288227 -0.5862809681
7.141606024 -0.9744895703 -0.7589813024
7.205561191 -1.382431288 -1.170524543
7.285499272 -1.205205405 -0.8297068602
6.963848165 -1.137358011 -1.139324387
6.808169804 -1.189788075 -1.062227276
6.969625857 -1.215661675 -1.271907668
7.087085279 -1.042145839 -1.498019904
6.876067933 -1.222008114 -1.337664451
7.073112237 -1.15205186 -1.781897698
7.016058932 -1.380361323 -1.968723165
6.732643811 -1.126114363 -2.094982716
6.634175811 -1.081281856 -1.892721806
6.46971456 -1.376730286 -1.959776285
6.423023314 -1.477924003 -1.926230958
6.60762788 -1.273449468 -2.223252429
6.573552668 -1.245544966 -2.293707412
6.502945896 -1.410737749 -2.509896831
6.207525627 -1.108321391 -2.431978273
6.357503886 -1.287776352 -2.631046425
-2.786744572 2.814150002 -1.378295428
-0.2482070514 -0.3209886562 -3.490864844
-6.508305112 3.301482744 0.3843019245
-5.836000954 -0.01810991052 -0.9060036642
-6.095589331 -0.1466751687 1.045892982
-6.778592565 3.152498929 2.086075729
-6.374151789 3.869989472 0.439112903
-5.01967695 6.137681413 -2.392006586
-1.664308526 6.983600464 -1.641089382
-4.718004385 5.071447422 -1.892091245
-6.256315701 4.419024227 0.2410440782
-5.696186432 0.47526779 -0.8632556258
-4.191292168 8.082187167 -6.704347834
-3.544750965 -0.2654251761 -2.646713598
-6.039320298 1.708350458 -0.3096483157
-5.715894923 2.489089344 -1.033032604
-6.490965259 2.444769752 2.794206857
-6.47481588 2.494463727 3.052092596
2.718878431 0.2355803049 -3.491075051
-6.85442938 2.839582436 0.8359836591
-6.845626399 3.415804746 1.240667729
-3.442795357 7.067355402 -4.51749893
-3.598027157 7.301804161 -5.184564342
-3.826980383 6.992639195 -4.630459111
7.098345616 -0.8195743226 -0.01069728316
-6.800994614 2.667117903 1.733407417
-3.344847063 6.983094837 -4.992894071
-3.501655361 7.453104589 -6.660872719
-3.793911394 -5.991526635 3.328190067
-3.526944476 6.424897531 -4.795411688
-0.2799933733 5.751855906 -1.300743017
-3.474225219 4.947317514 -1.956955554
-3.001176206 -2.900096949 2.457437882
-2.741994341 5.129650799 1.407327129
-1.726468857 2.818649212 -2.182926724
-3.487085575 6.355322606 -5.122805351
-3.761180216 6.26919854 -5.17337258
2.013263758 7.894576155 -3.401061762
-3.348860387 6.117014555 -4.142111726
0.7271951163 2.535220449 -1.906895879
-3.681823796 4.733530408 -1.666333026
-2.712442702 -2.393246506 2.993526053
-3.844358567 6.096291826 -4.817355504
1.69572882 8.106746556 -3.13962199
-2.570099608 4.836654022 1.228064796
-3.599313775 5.291255111 -2.16491357
-3.283966742 6.305352581 -4.098903202
7.180425706 0.04543406867 -0.7984648955
-1.65188049 5.148246494 -0.4298315203
-3.815924615 6.80665283 -5.821439338
-3.509527421 -3.40452921 1.602478697
-1.877731049 4.763240038 -0.7708701088
1.559957048 7.762568574 -3.410815357
6.83088704 -1.131542515 1.539267906
6.942864046 -0.8668068203 1.868017575
7.284030679 -1.182462534 1.358959463
7.199148797 -0.9045399098 1.500679975
7.336606967 -1.051297252 1.565832591
7.346935004 -1.26816507 1.153195919
7.240741507 -1.181057101 1.074274074
7.286596365 -1.016352242 1.203113427
7.111876721 -0.8315844508 0.833310709
7.444409009 -1.167422412 0.8264000856
7.458540941 -1.152526853 0.8966647656
7.253746589 -1.080768334 0.703893002
7.106546608 -0.9607607182 0.3606817566
7.369454132 -0.9848709759 0.2418183896
7.068842974 -0.9859790484 0.1331514127
7.33958812 -0.7896851274 0.03363649268
7.26711646 -0.8267245407 0.3410096786
7.053046659 -0.8844917338 -0.1079345675
7.406485133 -1.111044705 -0.2145319451
7.263381788 -1.201386381 -0.2143377202
7.211520593 -0.8092751485 -0.2549137409
7.347186173 -1.205006182 -0.1264163792
7.226741197 -1.256050902 -0.4208095655
7.106914276 -1.149289924 -0.6657611782
7.146389434 -1.155413633 -0.5314706288
6.992200769 -1.228426173 -0.9735543822
7.086701241 -1.245648535 -1.1141378
7.012073783 -0.8119312445 -1.220247001
6.879585233 -1.011578064 -1.076230997
6.878856873 -0.8582233279 -1.088303654
7.045293421 -1.035729952 -1.126407256
-4.350778845 6.325477509 0.5557757421
-1.233914979 2.673885244 1.818874691
-0.6845739721 3.286829411 -0.3457035209
-4.224099728 6.330224918 0.5039624102
-1.071333783 3.269192307 -0.1221102279
-6.792675628 2.540319164 2.566188118
-4.841456095 6.757809153 -4.25123895
-1.212183188 3.113104914 -0.03389042641
-5.886370561 5.95462346 0.5542480759
-4.845365146 5.345016254 2.993033591
-4.231166838 6.016018532 0.2354525677
-0.8148275771 3.259146081 -0.2066326003
-1.297021624 3.339091146 -0.1960068994
-3.467135939 8.533106342 -6.632169841
-3.660038502 8.559493407 -6.763607933
-4.679659485 4.822527658 -1.941583133
-6.301285668 2.232765437 2.158906875
-4.453836774 5.886061153 0.8621814672
-0.541129073 2.924309564 1.153646933
-4.695421117 6.165978174 0.1506258478
-1.24531682 3.208386267 -0.5627465002
-1.165382484 3.501078531 -0.460317504
-3.727798846 8.292088655 -6.583341655
-3.524518364 8.097435057 -6.488357072
-3.673609062 8.456766864 -6.981219509
-4.011887219 8.286560618 -6.837501791
-3.632712178 8.634504299 -6.576516987
-6.533221846 2.567373795 2.929746649
-6.542584043 2.96004889 2.754400537
-2.037212215 3.554152385 1.449340428
-2.657605928 5.495607387 0.9530062521
-4.674777563 5.989709016 1.057485091
-2.319554372 3.79704764 1.421251963
-1.623481583 3.265375606 -0.3115633643
-1.589443713 3.252862281 -0.3591315514
4.000890411 3.284526342 1.705026445
-3.742256849 8.333167504 -6.83663411
-3.823450706 8.269746307 -6.431716764
-4.053752716 8.572917416 -6.523871971
-3.980258241 8.402143491 -6.848734261
-4.095116686 8.766063563 -6.942252997
-4.090941332 8.453184084 -6.634765959
-1.545427587 3.288874901 -0.2090301396
-0.8323506437 2.848687611 1.433681881
-4.608337373 6.230311228 0.9606184493
-2.017104732 3.836194091 1.651205466
-1.464603544 3.379307416 -0.4762815381
-1.928399458 3.200399942 -0.5718853546
-3.426907944 7.938857245 -6.453390011
-3.904696983 8.089210618 -6.523169003
-3.509429026 8.142314114 -6.678402298
-4.025452648 8.389715795 -6.490465497
-4.023374211 8.330153665 -6.615636195
-4.190384022 8.679522047 -6.416655475
-4.117482312 8.605342708 -6.669441544
-4.356773461 8.637087873 -6.506351572
