# .PCD v0.7 - Point Cloud Data file format
VERSION 0.7
FIELDS x y z
SIZE 4 4 4
TYPE F F F
COUNT 1 1 1
WIDTH 1233
HEIGHT 1
VIEWPOINT 0 0 0 1 0 0 0
POINTS 1233
DATA ascii
-0.1814971755 2.992356344 0.1134120224
-1.55783908e-16 3 9.734458961e-17
0.0489280166 -2.842049392 -0.2162363428
-0.1889662802 -2.992356344 0.1004751535
-0.3769696316 -2.969464326 0.2004383086
-0.5630520322 -2.931440598 0.299380076
-0.7462652487 -2.878478921 0.3967962712
-0.9256756685 -2.810849175 0.4921904836
-1.100369057 -2.728895986 0.5850766061
-1.269455218 -2.633036969 0.6749813123
-1.432072525 -2.523760598 0.7614464684
-1.587392319 -2.401623723 0.8440314679
-1.734623126 -2.267248723 0.9223154765
-1.873014691 -2.121320344 0.9958995769
-2.001861802 -1.964582202 1.064408801
-2.120507885 -1.797833 1.127494042
-2.228348345 -1.621922452 1.184833832
-2.324833653 -1.43774696 1.236135981
-2.409472142 -1.246245039 1.281139063
-2.481832513 -1.048392539 1.319613755
-2.541546034 -0.8451976705 1.351363997
-2.781298824 -0.4228797748 1.599974522
-2.621881378 -0.4269445148 1.394079058
-2.642093831 -0.2140175496 1.404826209
-2.648842779 0 1.408414688
-2.642093831 0.2140175496 1.404826209
-2.621881378 0.4269445148 1.394079058
-2.58830842 0.6376958687 1.376227999
-2.541546034 0.8451976705 1.351363997
-2.481832513 1.048392539 1.319613755
-2.640096476 1.323110275 1.200646992
-2.324833653 1.43774696 1.236135981
-2.003422655 1.746179685 1.372967449
-2.120507885 1.797833 1.127494042
-2.001861802 1.964582202 1.064408801
-1.873014691 2.121320344 0.9958995769
-1.734623126 2.267248723 0.9223154765
-1.587392319 2.401623723 0.8440314679
-1.497633335 2.401035255 0.7044071141
-1.269455218 2.633036969 0.6749813123
-1.100369057 2.728895986 0.5850766061
-0.9256756685 2.810849175 0.4921904836
-0.7462652487 2.878478921 0.3967962712
-0.5630520322 2.931440598 0.299380076
-0.3769696316 2.969464326 0.2004383086
-0.1889662802 2.992356344 0.1004751535
-1.621948415e-16 3 8.6240527e-17
-1.678155781e-16 -3 7.471630921e-17
-0.1955147603 -2.992356344 0.08704877968
-0.3900332222 -2.969464326 0.1736539787
-0.5825641642 -2.931440598 0.2593742769
-0.7721264927 -2.878478921 0.3437728632
-0.9932048059 -2.711689971 0.6697756181
-1.138501494 -2.728895986 0.5068935236
-1.282442618 -2.819755073 0.7105441523
-1.481699889 -2.523760598 0.6596952936
-1.64240217 -2.401623723 0.731244559
-1.794735147 -2.267248723 0.7990675698
-1.937922564 -2.121320344 0.8628187154
-2.071234772 -1.964582202 0.9221731346
-2.193992443 -1.797833 0.9768283709
-2.305570031 -1.621922452 1.026505914
-2.405398963 -1.43774696 1.070952618
-2.464875384 -1.388110384 1.290114938
-2.567838496 -1.048392539 1.143275358
-2.629621343 -0.8451976705 1.170782853
-2.678004243 -0.6376958687 1.192324308
-2.712740646 -0.4269445148 1.207789952
-2.733653546 -0.2140175496 1.217100974
-2.740636373 0 1.220209929
-2.539639167 0.3461227244 1.066998439
-2.712740646 0.4269445148 1.207789952
-2.678004243 0.6376958687 1.192324308
-2.629621343 0.8451976705 1.170782853
-2.567838496 1.048392539 1.143275358
-2.492970532 1.246245039 1.109941993
-2.405398963 1.43774696 1.070952618
-2.191329098 1.393510065 0.7789345829
-2.193992443 1.797833 0.9768283709
-2.071234772 1.964582202 0.9221731346
-1.937922564 2.121320344 0.8628187154
-1.794735147 2.267248723 0.7990675698
-1.64240217 2.401623723 0.731244559
-1.481699889 2.523760598 0.6596952936
-1.313447205 2.633036969 0.5847843722
-1.138501494 2.728895986 0.5068935236
-0.9577542416 2.810849175 0.4264196619
-0.7721264927 2.878478921 0.3437728632
-0.5825641642 2.931440598 0.2593742769
-0.3900332222 2.969464326 0.1736539787
-0.253173024 2.832709442 0.01310901664
-1.678155781e-16 3 7.471630921e-17
-1.72618734e-16 -3 6.282808107e-17
-0.2011107121 -2.992356344 0.07319831299
-0.4011966101 -2.969464326 0.1460236242
-0.5992381021 -2.931440598 0.2181048324
-1.010737008 -2.92684213 0.0792132886
-0.9851667324 -2.810849175 0.3585713664
-1.171087267 -2.728895986 0.4262409069
-1.351040209 -2.633036969 0.4917384214
-1.52410856 -2.523760598 0.5547301496
-1.689410403 -2.401623723 0.6148951002
-1.846103398 -2.267248723 0.6719266862
-1.993389073 -2.121320344 0.7255342879
-2.130516895 -1.964582202 0.7754447332
-2.25678809 -1.797833 0.8214036899
-2.371559211 -1.621922452 0.8631769616
-2.47424541 -1.43774696 0.9005516814
-2.564323421 -1.246245039 0.9333373963
-2.641334228 -1.048392539 0.9613670377
-2.704885401 -0.8451976705 0.9844977731
-2.754653098 -0.6376958687 1.002611733
-2.95522417 -0.6423754336 1.12955706
-2.811895175 -0.2140175496 1.023446146
-2.819077862 0 1.02606043
-2.630621275 0.3817826487 0.8179105175
-3.012239308 0.6037596014 0.8829683585
-2.754653098 0.6376958687 1.002611733
-2.704885401 0.8451976705 0.9844977731
-2.641334228 1.048392539 0.9613670377
-2.564323421 1.246245039 0.9333373963
-2.47424541 1.43774696 0.9005516814
-2.371559211 1.621922452 0.8631769616
-2.25678809 1.797833 0.8214036899
-2.130516895 1.964582202 0.7754447332
-2.004564688 2.314487756 0.8081412707
-1.846103398 2.267248723 0.6719266862
-1.689410403 2.401623723 0.6148951002
-1.52410856 2.523760598 0.5547301496
-1.351040209 2.633036969 0.4917384214
-1.171087267 2.728895986 0.4262409069
-0.9851667324 2.810849175 0.3585713664
-0.7942260141 2.878478921 0.2890746284
-0.5992381021 2.931440598 0.2181048324
-0.4011966101 2.969464326 0.1460236242
-0.2011107121 2.992356344 0.07319831299
-1.72618734e-16 3 6.282808107e-17
-1.765809089e-16 -3 5.063376083e-17
-0.2057268727 -2.992356344 0.05899123147
-0.4104054084 -2.969464326 0.1176818571
-0.6129926122 -2.931440598 0.1757728031
-0.8124561462 -2.878478921 0.232968051
-1.00777959 -2.810849175 0.2889761473
-1.19796762 -2.728895986 0.3435116873
-1.608425912 -2.501911295 0.6398899364
-1.435056447 -2.737829515 0.4931288286
-1.728187998 -2.401623723 0.4955499342
-1.888477619 -2.267248723 0.5415122434
-1.991549315 -1.87569803 0.4635238417
-2.179419353 -1.964582202 0.624938443
-2.308588893 -1.797833 0.6619772126
-2.425994393 -1.621922452 0.6956426981
-2.531037582 -1.43774696 0.7257633478
-2.623183184 -1.246245039 0.7521856739
-2.701961645 -1.048392539 0.7747750342
-2.766971529 -0.8451976705 0.7934163185
-2.817881561 -0.6376958687 0.8080145351
-2.854432314 -0.4269445148 0.8184952949
-2.876437534 -0.2140175496 0.8248051903
-2.883785088 0 0.8269120675
-2.876437534 0.2140175496 0.8248051903
-2.854432314 0.4269445148 0.8184952949
-2.817881561 0.6376958687 0.8080145351
-2.766971529 0.8451976705 0.7934163185
-2.701961645 1.048392539 0.7747750342
-2.623183184 1.246245039 0.7521856739
-2.531037582 1.43774696 0.7257633478
-2.425994393 1.621922452 0.6956426981
-2.308588893 1.797833 0.6619772126
-2.179419353 1.964582202 0.624938443
-1.823413026 1.933242185 0.4337055035
-1.888477619 2.267248723 0.5415122434
-1.528048948 2.514474208 0.2798603628
-1.559091927 2.523760598 0.4470624161
-1.382051081 2.633036969 0.3962967704
-1.19796762 2.728895986 0.3435116873
-1.00777959 2.810849175 0.2889761473
-0.8124561462 2.878478921 0.232968051
-0.6129926122 2.931440598 0.1757728031
-0.4104054084 2.969464326 0.1176818571
-0.2057268727 2.992356344 0.05899123147
-1.765809089e-16 3 5.063376083e-17
-1.796827992e-16 -3 3.8192758e-17
-0.2093407527 -2.992356344 0.0444967506
-0.4176147528 -2.969464326 0.08876675596
-0.6237606839 -2.931440598 0.1325844263
-0.8267280736 -2.878478921 0.1757264768
-1.025482646 -2.810849175 0.2179730654
-1.219011595 -2.728895986 0.2591089132
-1.40632874 -2.633036969 0.2989244015
-1.586479555 -2.523760598 0.3372166394
-1.758546035 -2.401623723 0.3737904987
-1.969513139 -2.225759592 0.451055283
-2.074964404 -2.121320344 0.4410472994
-2.217703899 -1.964582202 0.4713875155
-2.349142482 -1.797833 0.4993256489
-2.468610374 -1.621922452 0.5247193333
-2.575498794 -1.43774696 0.5474391681
-2.669263061 -1.246245039 0.5673693785
-2.749425377 -1.048392539 0.5844084046
-2.81557725 -0.8451976705 0.5984694194
-2.867381588 -0.6376958687 0.6094807712
-2.904574406 -0.4269445148 0.6173863488
-2.926966178 -0.2140175496 0.622145867
-2.934442802 0 0.6237350725
-2.880828703 0.07488654342 0.7391541469
-2.904574406 0.4269445148 0.6173863488
-2.867381588 0.6376958687 0.6094807712
-2.81557725 0.8451976705 0.5984694194
-2.749425377 1.048392539 0.5844084046
-2.669263061 1.246245039 0.5673693785
-2.575498794 1.43774696 0.5474391681
-2.468610374 1.621922452 0.5247193333
-2.349142482 1.797833 0.4993256489
-2.217703899 1.964582202 0.4713875155
-2.253460703 1.967832939 0.377739071
-1.921651367 2.267248723 0.4084596073
-1.758546035 2.401623723 0.3737904987
-1.586479555 2.523760598 0.3372166394
-1.40632874 2.633036969 0.2989244015
-1.219011595 2.728895986 0.2591089132
-1.025482646 2.810849175 0.2179730654
-0.8267280736 2.878478921 0.1757264768
-0.6237606839 2.931440598 0.1325844263
-0.4176147528 2.969464326 0.08876675596
-0.2093407527 2.992356344 0.0444967506
-1.796827992e-16 3 3.8192758e-17
-1.819092931e-16 -3 2.556568389e-17
-0.2119347455 -2.992356344 0.02978548604
-0.2111381751 -2.777631185 0.07048991567
-0.6314898563 -2.931440598 0.08875011151
-0.8369722649 -2.878478921 0.1176287807
-1.038189655 -2.810849175 0.1459080406
-1.234116668 -2.728895986 0.1734437866
-1.332247428 -2.407788834 0.364670948
-1.606138015 -2.523760598 0.2257279772
-1.560160906 -2.183092361 0.2664176535
-1.945463023 -2.267248723 0.2734169971
-2.1006758 -2.121320344 0.2952307303
-2.245184014 -1.964582202 0.3155400354
-2.378251286 -1.797833 0.3342414208
-2.632833461 -1.453602079 0.174155739
-2.607412434 -1.43774696 0.3664479199
-2.702338558 -1.246245039 0.3797889166
-2.783494184 -1.048392539 0.391194596
-2.850465762 -0.8451976705 0.4006068375
-2.90291202 -0.6376958687 0.4079776783
-2.940565703 -0.4269445148 0.4132695584
-2.963234938 -0.2140175496 0.4164555115
-2.970804206 0 0.4175193029
-2.963234938 0.2140175496 0.4164555115
-2.940565703 0.4269445148 0.4132695584
-2.90291202 0.6376958687 0.4079776783
-2.850465762 0.8451976705 0.4006068375
-2.783494184 1.048392539 0.391194596
-2.702338558 1.246245039 0.3797889166
-2.607412434 1.43774696 0.3664479199
-2.499199534 1.621922452 0.3512395886
-2.149204996 1.840634881 0.4749743405
-2.245184014 1.964582202 0.3155400354
-2.09580847 2.124915404 0.2637253745
-1.945463023 2.267248723 0.2734169971
-1.780336612 2.401623723 0.2502099936
-1.606138015 2.523760598 0.2257279772
-1.423754906 2.633036969 0.2000957028
-1.234116668 2.728895986 0.1734437866
-1.038189655 2.810849175 0.1459080406
-0.8369722649 2.878478921 0.1176287807
-0.6314898563 2.931440598 0.08875011151
-0.4227895202 2.969464326 0.05941919207
-0.2119347455 2.992356344 0.02978548604
-1.819092931e-16 3 2.556568389e-17
-1.832495432e-16 -3 1.281405634e-17
-0.2134962136 -2.992356344 0.01492910958
-0.4259044994 -2.969464326 0.02978214384
-0.7549482372 -2.949580734 -0.1900191906
-0.8431388115 -2.878478921 0.05895800911
-1.045838707 -2.810849175 0.07313216661
-1.243209249 -2.728895986 0.08693365934
-1.434244681 -2.633036969 0.1002921581
-1.617971531 -2.523760598 0.113139591
-1.793453569 -2.401623723 0.1254104904
-2.15982065 -2.189750761 0.3848199766
-2.087361166 -1.995815968 0.3113632408
-2.261725819 -1.964582202 0.158155276
-2.395773488 -1.797833 0.1675288022
-2.517612845 -1.621922452 0.1760486399
-2.626623023 -1.43774696 0.1836713742
-2.722248533 -1.246245039 0.1903581612
-2.804002088 -1.048392539 0.1960749267
-2.703367216 -1.056827457 0.0481066451
-2.951671403 -0.7205162553 0.03748341484
-2.96223086 -0.4269445148 0.2071393603
-2.985067114 -0.2140175496 0.2087362267
-2.992692151 0 0.2092694212
-2.985067114 0.2140175496 0.2087362267
-2.96223086 0.4269445148 0.2071393603
-2.924299756 0.6376958687 0.2044869591
-2.871467091 0.8451976705 0.2007925393
-2.804002088 1.048392539 0.1960749267
-2.768820613 1.467497349 0.4156905819
-2.626623023 1.43774696 0.1836713742
-2.517612845 1.621922452 0.1760486399
-2.395773488 1.797833 0.1675288022
-2.261725819 1.964582202 0.158155276
-2.29407434 2.178419746 0.01425195802
-1.959796578 2.267248723 0.1370423268
-1.793453569 2.401623723 0.1254104904
-1.617971531 2.523760598 0.113139591
-1.434244681 2.633036969 0.1002921581
-1.243209249 2.728895986 0.08693365934
-1.045838707 2.810849175 0.07313216661
-0.8431388115 2.878478921 0.05895800911
-0.6361424736 2.931440598 0.04448341512
-0.4259044994 2.969464326 0.02978214384
-0.2134962136 2.992356344 0.01492910958
-1.832495432e-16 3 1.281405634e-17
-1.836970199e-16 -3 2.249639674e-32
-0.2140175496 -2.992356344 2.620959071e-17
-0.4269445148 -2.969464326 5.228562335e-17
-0.6376958687 -2.931440598 7.809522044e-17
-0.8451976705 -2.878478921 1.035068622e-16
-1.048392539 -2.810849175 1.283910567e-16
-1.246245039 -2.728895986 1.526209998e-16
-1.43774696 -2.633036969 1.760732213e-16
-1.621922452 -2.523760598 1.98628214e-16
-1.797833 -2.401623723 2.201710428e-16
-1.964582202 -2.267248723 2.405919305e-16
-2.123037895 -1.927439506 0.06507598464
-2.267248723 -1.964582202 2.776578892e-16
-2.401623723 -1.797833 2.941140805e-16
-2.523760598 -1.621922452 3.090715339e-16
-2.633036969 -1.43774696 3.224540296e-16
-2.728895986 -1.246245039 3.341933735e-16
-2.810849175 -1.048392539 3.442297445e-16
-2.878478921 -0.8451976705 3.525119997e-16
-2.931440598 -0.6376958687 3.589979345e-16
-2.969464326 -0.4269445148 3.636544982e-16
-2.992356344 -0.2140175496 3.664579618e-16
-3 0 3.673940397e-16
-2.992356344 0.2140175496 3.664579618e-16
-2.969464326 0.4269445148 3.636544982e-16
-2.931440598 0.6376958687 3.589979345e-16
-2.878478921 0.8451976705 3.525119997e-16
-2.810849175 1.048392539 3.442297445e-16
-2.728895986 1.246245039 3.341933735e-16
-2.633036969 1.43774696 3.224540296e-16
-2.523760598 1.621922452 3.090715339e-16
-2.401623723 1.797833 2.941140805e-16
-2.267248723 1.964582202 2.776578892e-16
-2.121320344 2.121320344 2.597868169e-16
-1.964582202 2.267248723 2.405919305e-16
-1.797833 2.401623723 2.201710428e-16
-1.621922452 2.523760598 1.98628214e-16
-1.43774696 2.633036969 1.760732213e-16
-1.246245039 2.728895986 1.526209998e-16
-1.048392539 2.810849175 1.283910567e-16
-0.8451976705 2.878478921 1.035068622e-16
-0.6376958687 2.931440598 7.809522044e-17
-0.4269445148 2.969464326 5.228562335e-17
-0.2140175496 2.992356344 2.620959071e-17
-1.836970199e-16 3 2.249639674e-32
0.03741036562 -3.016363316 0.05714092524
-0.2134962136 -2.992356344 -0.01492910958
-0.4259044994 -2.969464326 -0.02978214384
-0.6361424736 -2.931440598 -0.04448341512
-0.8431388115 -2.878478921 -0.05895800911
-1.045838707 -2.810849175 -0.07313216661
-1.243209249 -2.728895986 -0.08693365934
-1.434244681 -2.633036969 -0.1002921581
-1.617971531 -2.523760598 -0.113139591
-1.793453569 -2.401623723 -0.1254104904
-1.959796578 -2.267248723 -0.1370423268
-2.116152914 -2.121320344 -0.1479758268
-2.261725819 -1.964582202 -0.158155276
-2.395773488 -1.797833 -0.1675288022
-2.517612845 -1.621922452 -0.1760486399
-2.626623023 -1.43774696 -0.1836713742
-2.722248533 -1.246245039 -0.1903581612
-2.804002088 -1.048392539 -0.1960749267
-2.871467091 -0.8451976705 -0.2007925393
-2.924299756 -0.6376958687 -0.2044869591
-2.96223086 -0.4269445148 -0.2071393603
-2.985067114 -0.2140175496 -0.2087362267
-2.992692151 0 -0.2092694212
-2.985067114 0.2140175496 -0.2087362267
-2.96223086 0.4269445148 -0.2071393603
-2.924299756 0.6376958687 -0.2044869591
-2.871467091 0.8451976705 -0.2007925393
-2.857351146 1.233759226 -0.1016988203
-2.722248533 1.246245039 -0.1903581612
-2.626623023 1.43774696 -0.1836713742
-2.517612845 1.621922452 -0.1760486399
-2.395773488 1.797833 -0.1675288022
-2.261725819 1.964582202 -0.158155276
-2.116152914 2.121320344 -0.1479758268
-1.959796578 2.267248723 -0.1370423268
-1.793453569 2.401623723 -0.1254104904
-1.617971531 2.523760598 -0.113139591
-1.434244681 2.633036969 -0.1002921581
-1.243209249 2.728895986 -0.08693365934
-1.045838707 2.810849175 -0.07313216661
-0.8431388115 2.878478921 -0.05895800911
-0.6361424736 2.931440598 -0.04448341512
-0.4259044994 2.969464326 -0.02978214384
-0.2134962136 2.992356344 -0.01492910958
-1.832495432e-16 3 -1.281405634e-17
0.02824304526 -2.993855479 0.1537236882
-0.2119347455 -2.992356344 -0.02978548604
-0.4227895202 -2.969464326 -0.05941919207
-0.6314898563 -2.931440598 -0.08875011151
-0.8369722649 -2.878478921 -0.1176287807
-1.038189655 -2.810849175 -0.1459080406
-1.234116668 -2.728895986 -0.1734437866
-1.423754906 -2.633036969 -0.2000957028
-1.606138015 -2.523760598 -0.2257279772
-1.880957077 -2.37410258 -0.3331630638
-1.945463023 -2.267248723 -0.2734169971
-2.1006758 -2.121320344 -0.2952307303
-2.245184014 -1.964582202 -0.3155400354
-2.378251286 -1.797833 -0.3342414208
-2.499199534 -1.621922452 -0.3512395886
-2.607412434 -1.43774696 -0.3664479199
-2.530134251 -1.40875612 -0.2473829163
-2.783494184 -1.048392539 -0.391194596
-2.850465762 -0.8451976705 -0.4006068375
-2.90291202 -0.6376958687 -0.4079776783
-2.940565703 -0.4269445148 -0.4132695584
-2.963234938 -0.2140175496 -0.4164555115
-3.108155537 0.1120061261 -0.2488275637
-2.772196083 0.3627761516 -0.2316133636
-2.940565703 0.4269445148 -0.4132695584
-2.90291202 0.6376958687 -0.4079776783
-2.850465762 0.8451976705 -0.4006068375
-2.783494184 1.048392539 -0.391194596
-2.702338558 1.246245039 -0.3797889166
-2.607412434 1.43774696 -0.3664479199
-2.499199534 1.621922452 -0.3512395886
-2.1558487 1.770465733 -0.2465691855
-2.245184014 1.964582202 -0.3155400354
-2.1006758 2.121320344 -0.2952307303
-1.945463023 2.267248723 -0.2734169971
-1.780336612 2.401623723 -0.2502099936
-1.606138015 2.523760598 -0.2257279772
-1.296709626 2.56039963 -0.1257973071
-1.234116668 2.728895986 -0.1734437866
-1.038189655 2.810849175 -0.1459080406
-0.8369722649 2.878478921 -0.1176287807
-0.6314898563 2.931440598 -0.08875011151
-0.4227895202 2.969464326 -0.05941919207
-0.2119347455 2.992356344 -0.02978548604
-1.819092931e-16 3 -2.556568389e-17
-1.796827992e-16 -3 -3.8192758e-17
-0.2093407527 -2.992356344 -0.0444967506
-0.4176147528 -2.969464326 -0.08876675596
-0.6237606839 -2.931440598 -0.1325844263
-0.8267280736 -2.878478921 -0.1757264768
-1.025482646 -2.810849175 -0.2179730654
-1.219011595 -2.728895986 -0.2591089132
-1.286413193 -2.388813262 -0.1256252934
-1.586479555 -2.523760598 -0.3372166394
-1.758546035 -2.401623723 -0.3737904987
-1.921651367 -2.267248723 -0.4084596073
-2.074964404 -2.121320344 -0.4410472994
-2.217703899 -1.964582202 -0.4713875155
-2.349142482 -1.797833 -0.4993256489
-2.468610374 -1.621922452 -0.5247193333
-2.527569819 -1.628234885 -0.6750566463
-2.669263061 -1.246245039 -0.5673693785
-2.749425377 -1.048392539 -0.5844084046
-2.81557725 -0.8451976705 -0.5984694194
-2.867381588 -0.6376958687 -0.6094807712
-2.717954438 -0.3301918026 -0.847413116
-2.89762903 -0.322750349 -0.5737826918
-2.934442802 0 -0.6237350725
-2.926966178 0.2140175496 -0.622145867
-2.904574406 0.4269445148 -0.6173863488
-2.867381588 0.6376958687 -0.6094807712
-2.587646983 1.085576404 -0.4789321049
-2.749425377 1.048392539 -0.5844084046
-2.669263061 1.246245039 -0.5673693785
-2.575498794 1.43774696 -0.5474391681
-2.468610374 1.621922452 -0.5247193333
-2.349142482 1.797833 -0.4993256489
-2.217703899 1.964582202 -0.4713875155
-2.074964404 2.121320344 -0.4410472994
-1.921651367 2.267248723 -0.4084596073
-1.758546035 2.401623723 -0.3737904987
-1.586479555 2.523760598 -0.3372166394
-1.40632874 2.633036969 -0.2989244015
-1.219011595 2.728895986 -0.2591089132
-1.025482646 2.810849175 -0.2179730654
-0.6832575057 2.844978029 -0.2066072983
-0.6237606839 2.931440598 -0.1325844263
-0.4176147528 2.969464326 -0.08876675596
-0.2093407527 2.992356344 -0.0444967506
-1.796827992e-16 3 -3.8192758e-17
0.133753708 -3.061765283 -0.05988220805
-0.2057268727 -2.992356344 -0.05899123147
-0.4104054084 -2.969464326 -0.1176818571
-0.6129926122 -2.931440598 -0.1757728031
-0.8124561462 -2.878478921 -0.232968051
-1.00777959 -2.810849175 -0.2889761473
-1.19796762 -2.728895986 -0.3435116873
-1.382051081 -2.633036969 -0.3962967704
-1.559091927 -2.523760598 -0.4470624161
-1.728187998 -2.401623723 -0.4955499342
-1.888477619 -2.267248723 -0.5415122434
-2.039143991 -2.121320344 -0.5847151303
-2.179419353 -1.964582202 -0.624938443
-2.308588893 -1.797833 -0.6619772126
-2.425994393 -1.621922452 -0.6956426981
-2.531037582 -1.43774696 -0.7257633478
-2.623183184 -1.246245039 -0.7521856739
-2.701961645 -1.048392539 -0.7747750342
-2.766971529 -0.8451976705 -0.7934163185
-2.757152358 -0.6588282754 -1.047883971
-2.854432314 -0.4269445148 -0.8184952949
-2.876437534 -0.2140175496 -0.8248051903
-2.883785088 0 -0.8269120675
-2.876437534 0.2140175496 -0.8248051903
-2.854432314 0.4269445148 -0.8184952949
-2.817881561 0.6376958687 -0.8080145351
-2.936036849 0.6419808633 -0.7685796189
-2.701961645 1.048392539 -0.7747750342
-2.623183184 1.246245039 -0.7521856739
-2.531037582 1.43774696 -0.7257633478
-2.205310942 1.426076513 -0.8822133241
-2.308588893 1.797833 -0.6619772126
-2.179419353 1.964582202 -0.624938443
-2.039143991 2.121320344 -0.5847151303
-1.888477619 2.267248723 -0.5415122434
-1.728187998 2.401623723 -0.4955499342
-1.321841481 2.375767171 -0.3855266643
-1.382051081 2.633036969 -0.3962967704
-1.19796762 2.728895986 -0.3435116873
-1.00777959 2.810849175 -0.2889761473
-0.8124561462 2.878478921 -0.232968051
-0.6129926122 2.931440598 -0.1757728031
-0.4104054084 2.969464326 -0.1176818571
-0.2057268727 2.992356344 -0.05899123147
-1.765809089e-16 3 -5.063376083e-17
0.2114321815 -2.966094307 0.1021984395
-0.2011107121 -2.992356344 -0.07319831299
-0.4011966101 -2.969464326 -0.1460236242
-0.5992381021 -2.931440598 -0.2181048324
-0.7942260141 -2.878478921 -0.2890746284
-0.9851667324 -2.810849175 -0.3585713664
-1.171087267 -2.728895986 -0.4262409069
-1.351040209 -2.633036969 -0.4917384214
-1.419677521 -2.27406558 -0.8009886515
-1.689410403 -2.401623723 -0.6148951002
-1.846103398 -2.267248723 -0.6719266862
-1.948494081 -2.029320292 -0.6814611138
-2.130516895 -1.964582202 -0.7754447332
-2.25678809 -1.797833 -0.8214036899
-2.371559211 -1.621922452 -0.8631769616
-2.47424541 -1.43774696 -0.9005516814
-2.564323421 -1.246245039 -0.9333373963
-2.641334228 -1.048392539 -0.9613670377
-2.704885401 -0.8451976705 -0.9844977731
-2.754653098 -0.6376958687 -1.002611733
-2.790383714 -0.4269445148 -1.015616614
-2.939581609 -0.4584241731 -0.7801331872
-2.819077862 0 -1.02606043
-2.811895175 0.2140175496 -1.023446146
-2.790383714 0.4269445148 -1.015616614
-2.754653098 0.6376958687 -1.002611733
-2.704885401 0.8451976705 -0.9844977731
-2.641334228 1.048392539 -0.9613670377
-2.564323421 1.246245039 -0.9333373963
-2.47424541 1.43774696 -0.9005516814
-2.371559211 1.621922452 -0.8631769616
-2.25678809 1.797833 -0.8214036899
-2.130516895 1.964582202 -0.7754447332
-1.993389073 2.121320344 -0.7255342879
-1.846103398 2.267248723 -0.6719266862
-1.689410403 2.401623723 -0.6148951002
-1.52410856 2.523760598 -0.5547301496
-1.351040209 2.633036969 -0.4917384214
-1.297113771 2.935906018 -0.2776098108
-0.9851667324 2.810849175 -0.3585713664
-0.7942260141 2.878478921 -0.2890746284
-0.5992381021 2.931440598 -0.2181048324
-0.4011966101 2.969464326 -0.1460236242
-0.2011107121 2.992356344 -0.07319831299
-1.72618734e-16 3 -6.282808107e-17
-1.678155781e-16 -3 -7.471630921e-17
-0.1955147603 -2.992356344 -0.08704877968
-0.3900332222 -2.969464326 -0.1736539787
-0.5825641642 -2.931440598 -0.2593742769
-0.7721264927 -2.878478921 -0.3437728632
-0.9577542416 -2.810849175 -0.4264196619
-1.138501494 -2.728895986 -0.5068935236
-1.313447205 -2.633036969 -0.5847843722
-1.481699889 -2.523760598 -0.6596952936
-1.64240217 -2.401623723 -0.731244559
-1.794735147 -2.267248723 -0.7990675698
-1.937922564 -2.121320344 -0.8628187154
-2.071234772 -1.964582202 -0.9221731346
-2.193992443 -1.797833 -0.9768283709
-2.305570031 -1.621922452 -1.026505914
-2.352273653 -1.654570558 -1.200305892
-2.468526737 -1.416075977 -1.054738333
-2.567838496 -1.048392539 -1.143275358
-2.629621343 -0.8451976705 -1.170782853
-2.678004243 -0.6376958687 -1.192324308
-2.712740646 -0.4269445148 -1.207789952
-2.733653546 -0.2140175496 -1.217100974
-2.740636373 0 -1.220209929
-2.733653546 0.2140175496 -1.217100974
-2.712740646 0.4269445148 -1.207789952
-2.678004243 0.6376958687 -1.192324308
-2.465010772 0.892245664 -1.298355479
-2.567838496 1.048392539 -1.143275358
-2.355761615 1.29123765 -1.304566834
-2.279980796 1.334214913 -0.8763016926
-2.305570031 1.621922452 -1.026505914
-2.193992443 1.797833 -0.9768283709
-2.071234772 1.964582202 -0.9221731346
-1.937922564 2.121320344 -0.8628187154
-1.794735147 2.267248723 -0.7990675698
-1.729320849 2.268959856 -0.7846194918
-1.481699889 2.523760598 -0.6596952936
-1.313447205 2.633036969 -0.5847843722
-1.138501494 2.728895986 -0.5068935236
-0.9577542416 2.810849175 -0.4264196619
-0.7721264927 2.878478921 -0.3437728632
-0.5825641642 2.931440598 -0.2593742769
-0.3900332222 2.969464326 -0.1736539787
-0.1955147603 2.992356344 -0.08704877968
-1.678155781e-16 3 -7.471630921e-17
-1.621948415e-16 -3 -8.6240527e-17
-0.3120207362 -3.127304767 0.1422071276
-0.3769696316 -2.969464326 -0.2004383086
-0.5630520322 -2.931440598 -0.299380076
-0.9041102477 -2.810708275 -0.456936608
-0.9256756685 -2.810849175 -0.4921904836
-1.100369057 -2.728895986 -0.5850766061
-1.269455218 -2.633036969 -0.6749813123
-1.432072525 -2.523760598 -0.7614464684
-1.587392319 -2.401623723 -0.8440314679
-1.734623126 -2.267248723 -0.9223154765
-1.873014691 -2.121320344 -0.9958995769
-2.001861802 -1.964582202 -1.064408801
-2.120507885 -1.797833 -1.127494042
-2.228348345 -1.621922452 -1.184833832
-2.250609568 -1.296327882 -1.178832871
-2.409472142 -1.246245039 -1.281139063
-2.481832513 -1.048392539 -1.319613755
-2.541546034 -0.8451976705 -1.351363997
-2.58830842 -0.6376958687 -1.376227999
-2.621881378 -0.4269445148 -1.394079058
-2.642093831 -0.2140175496 -1.404826209
-2.648842779 0 -1.408414688
-2.642093831 0.2140175496 -1.404826209
-2.621881378 0.4269445148 -1.394079058
-2.58830842 0.6376958687 -1.376227999
-2.541546034 0.8451976705 -1.351363997
-2.481832513 1.048392539 -1.319613755
-2.409472142 1.246245039 -1.281139063
-2.324833653 1.43774696 -1.236135981
-2.228348345 1.621922452 -1.184833832
-1.888501034 1.955714806 -1.015714365
-2.001861802 1.964582202 -1.064408801
-1.873014691 2.121320344 -0.9958995769
-1.734623126 2.267248723 -0.9223154765
-1.587392319 2.401623723 -0.8440314679
-1.432072525 2.523760598 -0.7614464684
-1.269455218 2.633036969 -0.6749813123
-1.100369057 2.728895986 -0.5850766061
-0.9256756685 2.810849175 -0.4921904836
-0.7462652487 2.878478921 -0.3967962712
-0.5630520322 2.931440598 -0.299380076
-0.3769696316 2.969464326 -0.2004383086
-0.1889662802 2.992356344 -0.1004751535
-1.621948415e-16 3 -8.6240527e-17
-1.55783908e-16 -3 -9.734458961e-17
-0.1814971755 -2.992356344 -0.1134120224
-0.362069483 -2.969464326 -0.2262461232
-0.5407967673 -2.931440598 -0.3379273255
-0.7167682754 -2.878478921 -0.4478865277
-0.8890872966 -2.810849175 -0.5555634028
-1.056875733 -2.728895986 -0.6604092541
-1.219278572 -2.633036969 -0.7618898113
-1.583687232 -2.578622527 -0.980644407
-1.524648852 -2.401623723 -0.9527063403
-1.666060196 -2.267248723 -1.041069955
-1.798981679 -2.121320344 -1.124128516
-1.922735963 -1.964582202 -1.201458775
-2.036692426 -1.797833 -1.272666676
-2.140270371 -1.621922452 -1.337389359
-2.232941988 -1.43774696 -1.395297013
-2.314235046 -1.246245039 -1.446094553
-2.383735291 -1.048392539 -1.489523127
-2.441088569 -0.8451976705 -1.525361432
-2.486002618 -0.6376958687 -1.553426845
-2.518248568 -0.4269445148 -1.573576351
-2.5376621 -0.2140175496 -1.585707272
-2.544144288 0 -1.589757793
-2.5376621 0.2140175496 -1.585707272
-2.518248568 0.4269445148 -1.573576351
-2.486002618 0.6376958687 -1.553426845
-2.441088569 0.8451976705 -1.525361432
-2.383735291 1.048392539 -1.489523127
-2.314235046 1.246245039 -1.446094553
-2.232941988 1.43774696 -1.395297013
-2.140270371 1.621922452 -1.337389359
-2.036692426 1.797833 -1.272666676
-1.922735963 1.964582202 -1.201458775
-1.798981679 2.121320344 -1.124128516
-1.666060196 2.267248723 -1.041069955
-1.524648852 2.401623723 -0.9527063403
-1.375468248 2.523760598 -0.8594879526
-1.219278572 2.633036969 -0.7618898113
-1.056875733 2.728895986 -0.6604092541
-0.8890872966 2.810849175 -0.5555634028
-0.7167682754 2.878478921 -0.4478865277
-0.5407967673 2.931440598 -0.3379273255
-0.5905906693 3.080148765 -0.09573533671
-0.1814971755 2.992356344 -0.1134120224
0.1384535275 2.938269366 -0.09833118366
-1.486140109e-16 -3 -1.079743992e-16
-0.1731438347 -2.992356344 -0.1257963594
-0.1819013608 -2.899717108 -0.1334114673
-0.515906795 -2.931440598 -0.374828227
-0.6837792791 -2.878478921 -0.496794726
-0.8481673807 -2.810849175 -0.6162296729
-0.9589691715 -2.801966666 -0.9206307891
-1.163161724 -2.633036969 -0.8450864597
-1.312162828 -2.523760598 -0.9533420979
-1.676020849 -2.193610596 -1.150688348
-1.589380388 -2.267248723 -1.154752445
-1.716184208 -2.121320344 -1.246880813
-1.834242747 -1.964582202 -1.332655363
-1.942954406 -1.797833 -1.411639006
-2.041765214 -1.621922452 -1.48342926
-2.130171654 -1.43774696 -1.547660299
-2.36344319 -1.457925708 -1.551937713
-2.274024751 -1.048392539 -1.652175691
-2.328738365 -0.8451976705 -1.691927459
-2.371585262 -0.6376958687 -1.723057551
-2.402347104 -0.4269445148 -1.745407338
-2.420867135 -0.2140175496 -1.758862929
-2.243548183 -0.06766085481 -2.011173946
-2.420867135 0.2140175496 -1.758862929
-2.402347104 0.4269445148 -1.745407338
-2.371585262 0.6376958687 -1.723057551
-2.328738365 0.8451976705 -1.691927459
-2.274024751 1.048392539 -1.652175691
-2.417450756 1.359750492 -1.421967581
-2.130171654 1.43774696 -1.547660299
-2.041765214 1.621922452 -1.48342926
-1.942954406 1.797833 -1.411639006
-1.807527062 2.064543287 -1.258716623
-1.716184208 2.121320344 -1.246880813
-1.589380388 2.267248723 -1.154752445
-1.627325591 2.617521033 -0.9259858491
-1.312162828 2.523760598 -0.9533420979
-1.163161724 2.633036969 -0.8450864597
-1.008233416 2.728895986 -0.7325244547
-0.8481673807 2.810849175 -0.6162296729
-0.6837792791 2.878478921 -0.496794726
-0.7346212371 2.736184261 -0.5771515004
-0.3454053681 2.969464326 -0.2509516894
-0.1731438347 2.992356344 -0.1257963594
-1.486140109e-16 3 -1.079743992e-16
-1.407200813e-16 -3 -1.180781683e-16
-0.1639469546 -2.992356344 -0.1375678291
-0.3270584731 -2.969464326 -0.2744346441
-0.4885033766 -2.931440598 -0.4099030031
-0.7571646685 -2.963178644 -0.6561598227
-0.8031152786 -2.810849175 -0.673893734
-0.9546790869 -2.728895986 -0.8010708697
-1.101378069 -2.633036969 -0.9241659319
-1.242464682 -2.523760598 -1.042551656
-1.377219979 -2.401623723 -1.155624776
-1.504957279 -2.267248723 -1.262809098
-1.625025661 -2.121320344 -1.363558433
-1.736813285 -1.964582202 -1.457359387
-1.839750507 -1.797833 -1.543733972
-1.933312782 -1.621922452 -1.622242043
-2.017023338 -1.43774696 -1.692483539
-2.090455606 -1.246245039 -1.754100528
-2.321108697 -1.232119382 -1.579724882
-2.205042782 -0.8451976705 -1.850250585
-2.24561378 -0.6376958687 -1.884293695
-2.274741646 -0.4269445148 -1.908734876
-2.292277949 -0.2140175496 -1.923449582
-2.298133329 0 -1.928362829
-2.292277949 0.2140175496 -1.923449582
-2.274741646 0.4269445148 -1.908734876
-2.24561378 0.6376958687 -1.884293695
-2.205042782 0.8451976705 -1.850250585
-2.153235391 1.048392539 -1.806779022
-2.090455606 1.246245039 -1.754100528
-2.017023338 1.43774696 -1.692483539
-1.933312782 1.621922452 -1.622242043
-1.839750507 1.797833 -1.543733972
-1.736813285 1.964582202 -1.457359387
-1.625025661 2.121320344 -1.363558433
-1.504957279 2.267248723 -1.262809098
-1.225219399 2.202341248 -1.251250532
-1.242464682 2.523760598 -1.042551656
-1.311719619 2.731095148 -1.138277385
-0.9546790869 2.728895986 -0.8010708697
-0.8031152786 2.810849175 -0.673893734
-0.6474589788 2.878478921 -0.5432825903
-0.4885033766 2.931440598 -0.4099030031
-0.3270584731 2.969464326 -0.2744346441
-0.1639469546 2.992356344 -0.1375678291
-1.407200813e-16 3 -1.180781683e-16
-1.321405776e-16 -3 -1.276066725e-16
-0.1539513414 -2.992356344 -0.1486690823
-0.307118182 -2.969464326 -0.2965805809
-0.4587200188 -2.931440598 -0.442980773
-0.6079843236 -2.878478921 -0.5871236365
-0.7541504795 -2.810849175 -0.7282746526
-0.8964736575 -2.728895986 -0.865714548
-1.034228611 -2.633036969 -0.9987429605
-1.166713373 -2.523760598 -1.126682008
-1.293252831 -2.401623723 -1.248879742
-1.413202169 -2.267248723 -1.364713471
-1.638132626 -2.324205412 -1.628229354
-1.630922244 -1.964582202 -1.574963303
-1.727583529 -1.797833 -1.668308022
-1.815441445 -1.621922452 -1.753151425
-1.927361329 -1.511374524 -1.718831594
-1.963003494 -1.246245039 -1.895650439
-2.021955684 -1.048392539 -1.952579908
-2.070604452 -0.8451976705 -1.999559477
-2.108701894 -0.6376958687 -2.036349749
-2.136053875 -0.4269445148 -2.06276325
-2.152521015 -0.2140175496 -2.078665382
-2.158019401 0 -2.083975111
-1.931266383 0.1236045355 -2.200695841
-2.136053875 0.4269445148 -2.06276325
-2.108701894 0.6376958687 -2.036349749
-2.289661713 0.6079484525 -1.949750027
-1.805261506 1.266845809 -1.929552875
-1.963003494 1.246245039 -1.895650439
-1.894048287 1.43774696 -1.82906117
-1.696711222 1.422815446 -1.960372604
-1.727583529 1.797833 -1.668308022
-1.663904436 2.068422657 -1.424288837
-1.525950152 2.121320344 -1.473592933
-1.413202169 2.267248723 -1.364713471
-1.293252831 2.401623723 -1.248879742
-1.166713373 2.523760598 -1.126682008
-1.034228611 2.633036969 -0.9987429605
-0.8964736575 2.728895986 -0.865714548
-0.7541504795 2.810849175 -0.7282746526
-0.6079843236 2.878478921 -0.5871236365
-0.5873829973 2.864784379 -0.5173059314
-0.307118182 2.969464326 -0.2965805809
-0.1539513414 2.992356344 -0.1486690823
-1.321405776e-16 3 -1.276066725e-16
-1.229172983e-16 -3 -1.365134898e-16
-0.1432056927 -2.992356344 -0.1590460345
-0.2856816421 -2.969464326 -0.317281607
-0.4267018233 -2.931440598 -0.473900385
-0.5655476298 -2.878478921 -0.6281042754
-0.7015115352 -2.810849175 -0.7791074903
-0.8339006986 -2.728895986 -0.926140552
-0.9620404952 -2.633036969 -1.068454214
-1.085277954 -2.523760598 -1.205323278
-1.202985085 -2.401623723 -1.336050291
-1.31456208 -2.267248723 -1.459969098
-1.611390714 -2.351959043 -1.661976411
-1.517085513 -1.964582202 -1.684894157
-1.606999938 -1.797833 -1.784754242
-1.68872546 -1.621922452 -1.87551963
-1.761845623 -1.43774696 -1.956727799
-1.825987826 -1.246245039 -2.027964931
-1.880825213 -1.048392539 -2.08886802
-1.926078346 -0.8451976705 -2.139126715
-1.961516625 -0.6376958687 -2.178484912
-1.986959465 -0.4269445148 -2.206742048
-2.002277215 -0.2140175496 -2.223754133
-2.007391819 0 -2.229434476
-2.002277215 0.2140175496 -2.223754133
-1.986959465 0.4269445148 -2.206742048
-1.961516625 0.6376958687 -2.178484912
-1.926078346 0.8451976705 -2.139126715
-1.880825213 1.048392539 -2.08886802
-1.825987826 1.246245039 -2.027964931
-1.58426365 1.269336039 -1.953103483
-1.68872546 1.621922452 -1.87551963
-1.399301469 1.775295614 -1.557620104
-1.517085513 1.964582202 -1.684894157
-1.419440368 2.121320344 -1.576448236
-1.31456208 2.267248723 -1.459969098
-1.202985085 2.401623723 -1.336050291
-1.085277954 2.523760598 -1.205323278
-0.9620404952 2.633036969 -1.068454214
-0.8339006986 2.728895986 -0.926140552
-0.7015115352 2.810849175 -0.7791074903
-0.5655476298 2.878478921 -0.6281042754
-0.4267018233 2.931440598 -0.473900385
-0.2856816421 2.969464326 -0.317281607
-0.1432056927 2.992356344 -0.1590460345
-1.229172983e-16 3 -1.365134898e-16
0.1202226774 -2.786534819 -0.2126092329
-0.1317623603 -2.992356344 -0.1686481305
-0.2628532899 -2.969464326 -0.3364368689
-0.3926047793 -2.931440598 -0.502511202
-0.3531442687 -2.866766997 -0.4624261666
-0.6454548972 -2.810849175 -0.8261445946
-0.7672650593 -2.728895986 -0.9820544924
-0.8851654146 -2.633036969 -1.132960066
-0.9985551699 -2.523760598 -1.278092334
-1.106856517 -2.401623723 -1.416711737
-1.209517577 -2.267248723 -1.548111901
-1.306015212 -2.121320344 -1.671623243
-1.395857694 -1.964582202 -1.786616375
-1.478587204 -1.797833 -1.89250532
-1.654025928 -1.755882222 -1.92873472
-1.621059425 -1.43774696 -2.074861446
-1.504934286 -1.065861192 -2.229264845
-1.73053155 -1.048392539 -2.214979377
-1.772168579 -0.8451976705 -2.268272344
-1.804775043 -0.6376958687 -2.310006715
-1.828184788 -0.4269445148 -2.339969821
-1.653042443 -0.001872669895 -2.197202409
-1.846984426 0 -2.364032261
-1.842278521 0.2140175496 -2.358008978
-1.828184788 0.4269445148 -2.339969821
-1.804775043 0.6376958687 -2.310006715
-1.741198117 0.7595904694 -2.357102958
-1.682411845 0.9304093901 -2.371050103
-1.747895341 1.435729475 -2.232063978
-1.621059425 1.43774696 -2.074861446
-1.553782173 1.621922452 -1.988750491
-1.478587204 1.797833 -1.89250532
-1.395857694 1.964582202 -1.786616375
-1.306015212 2.121320344 -1.671623243
-1.209517577 2.267248723 -1.548111901
-1.339311134 2.647056645 -1.275569775
-0.9985551699 2.523760598 -1.278092334
-0.8851654146 2.633036969 -1.132960066
-0.6213414144 2.704468858 -0.8372753904
-0.7513552466 2.936511063 -0.6796342003
-0.5203556448 2.878478921 -0.6660248533
-0.3926047793 2.931440598 -0.502511202
-0.2628532899 2.969464326 -0.3364368689
-0.1317623603 2.992356344 -0.1686481305
-1.130951783e-16 3 -1.447552271e-16
-1.027220699e-16 -3 -1.522917314e-16
-0.119677095 -2.992356344 -0.1774285898
-0.2387443429 -2.969464326 -0.3539530442
-0.3565950043 -2.931440598 -0.528673835
-0.4726285394 -2.878478921 -0.7007006251
-0.5862536677 -2.810849175 -0.8691568054
-0.6968913818 -2.728895986 -1.033183962
-0.8039778971 -2.633036969 -1.19194625
-0.9069675253 -2.523760598 -1.344634653
-1.005335455 -2.401623723 -1.490471106
-1.098580426 -2.267248723 -1.62871246
-1.186227282 -2.121320344 -1.758654268
-1.267829396 -1.964582202 -1.879634378
-1.342970943 -1.797833 -1.991036301
-1.411269017 -1.621922452 -2.09229236
-1.472375587 -1.43774696 -2.182886577
-1.52597927 -1.246245039 -2.262357304
-1.571806911 -1.048392539 -2.330299577
-1.609624985 -0.8451976705 -2.386367177
-1.639240779 -0.6376958687 -2.430274397
-1.482522124 -0.3719322606 -2.64722933
-1.673304432 -0.2140175496 -2.48077584
-1.67757871 0 -2.487112718
-1.673304432 0.2140175496 -2.48077584
-1.660503378 0.4269445148 -2.461797496
-1.639240779 0.6376958687 -2.430274397
-1.609624985 0.8451976705 -2.386367177
-1.571806911 1.048392539 -2.330299577
-1.453542713 1.355332935 -2.228802621
-1.472375587 1.43774696 -2.182886577
-1.411269017 1.621922452 -2.09229236
-1.342970943 1.797833 -1.991036301
-1.267829396 1.964582202 -1.879634378
-1.186227282 2.121320344 -1.758654268
-1.098580426 2.267248723 -1.62871246
-1.005335455 2.401623723 -1.490471106
-0.9069675253 2.523760598 -1.344634653
-0.8039778971 2.633036969 -1.19194625
-0.6968913818 2.728895986 -1.033183962
-0.5862536677 2.810849175 -0.8691568054
-0.4726285394 2.878478921 -0.7007006251
-0.3565950043 2.931440598 -0.528673835
-0.2387443429 2.969464326 -0.3539530442
-0.119677095 2.992356344 -0.1774285898
-1.027220699e-16 3 -1.522917314e-16
-9.184850994e-17 -3 -1.590862858e-16
-0.1070087748 -2.992356344 -0.1853446348
-0.2134722574 -2.969464326 -0.3697447958
-0.3188479343 -2.931440598 -0.5522608221
-0.4225988353 -2.878478921 -0.7319626539
-0.5241962694 -2.810849175 -0.9079345717
-0.6231225195 -2.728895986 -1.079279863
-0.7188734801 -2.633036969 -1.245125392
-1.052715597 -2.537022897 -1.572436684
-0.8989164998 -2.401623723 -1.556969049
-0.9822911009 -2.267248723 -1.701378095
-1.060660172 -2.121320344 -1.837117307
-1.133624362 -1.964582202 -1.963494991
-1.200811861 -1.797833 -2.079867154
-1.261880299 -1.621922452 -2.185640791
-1.316518484 -1.43774696 -2.280276904
-1.364447993 -1.246245039 -2.363293248
-1.405424587 -1.048392539 -2.434266792
-1.43923946 -0.8451976705 -2.49283587
-1.465720299 -0.6376958687 -2.538702027
-1.484732163 -0.4269445148 -2.571631542
-1.496178172 -0.2140175496 -2.591456611
-1.5 0 -2.598076211
-1.496178172 0.2140175496 -2.591456611
-1.484732163 0.4269445148 -2.571631542
-1.465720299 0.6376958687 -2.538702027
-1.43923946 0.8451976705 -2.49283587
-1.405424587 1.048392539 -2.434266792
-1.364447993 1.246245039 -2.363293248
-1.316518484 1.43774696 -2.280276904
-1.261880299 1.621922452 -2.185640791
-1.200811861 1.797833 -2.079867154
-1.133624362 1.964582202 -1.963494991
-1.060660172 2.121320344 -1.837117307
-0.9822911009 2.267248723 -1.701378095
-0.8989164998 2.401623723 -1.556969049
-0.8109612262 2.523760598 -1.404626047
-0.7188734801 2.633036969 -1.245125392
-0.6231225195 2.728895986 -1.079279863
-0.5241962694 2.810849175 -0.9079345717
-0.4225988353 2.878478921 -0.7319626539
-0.3188479343 2.931440598 -0.5522608221
-0.2134722574 2.969464326 -0.3697447958
-0.1070087748 2.992356344 -0.1853446348
-9.184850994e-17 3 -1.590862858e-16
-8.052747326e-17 -3 -1.651057878e-16
-0.09381911865 -2.992356344 -0.1923576994
-0.1871601566 -2.969464326 -0.383735188
-0.2795474692 -2.931440598 -0.5731572501
-0.3705102721 -2.878478921 -0.7596586342
-0.4595850395 -2.810849175 -0.9422889721
-0.5463178669 -2.728895986 -1.120117621
-0.6302667837 -2.633036969 -1.292238408
-0.7110040054 -2.523760598 -1.457774244
-0.6552485599 -2.255612102 -1.665032208
-0.8612161528 -2.267248723 -1.765754786
-0.9299256317 -2.121320344 -1.906630095
-0.9938964228 -1.964582202 -2.037789654
-1.052802546 -1.797833 -2.158565103
-1.106343828 -1.621922452 -2.268341
-1.154247436 -1.43774696 -2.366557951
-1.196269263 -1.246245039 -2.452715465
-1.232195176 -1.048392539 -2.526374504
-1.261842106 -0.8451976705 -2.587159716
-1.285058977 -0.6376958687 -2.634761356
-1.529528834 -0.1781067911 -2.484208295
-1.311762682 -0.2140175496 -2.689512066
-1.31511344 0 -2.696382139
-1.311762682 0.2140175496 -2.689512066
-1.301727482 0.4269445148 -2.668936857
-1.285058977 0.6376958687 -2.634761356
-1.261842106 0.8451976705 -2.587159716
-1.232195176 1.048392539 -2.526374504
-1.196269263 1.246245039 -2.452715465
-1.332649067 1.310984887 -2.517079595
-1.106343828 1.621922452 -2.268341
-1.052802546 1.797833 -2.158565103
-0.9938964228 1.964582202 -2.037789654
-0.9299256317 2.121320344 -1.906630095
-0.8612161528 2.267248723 -1.765754786
-0.7881181137 2.401623723 -1.615881596
-0.7110040054 2.523760598 -1.457774244
-0.6302667837 2.633036969 -1.292238408
-0.5463178669 2.728895986 -1.120117621
-0.4595850395 2.810849175 -0.9422889721
-0.3705102721 2.878478921 -0.7596586342
-0.2795474692 2.931440598 -0.5731572501
-0.1871601566 2.969464326 -0.383735188
-0.09381911865 2.992356344 -0.1923576994
-8.052747326e-17 3 -1.651057878e-16
-6.881411483e-17 -3 -1.70320911e-16
-0.08017238519 -2.992356344 -0.1984336166
-0.1599362303 -2.969464326 -0.3958560609
-0.238885077 -2.931440598 -0.5912613135
-0.3166166201 -2.878478921 -0.783653634
-0.3927347575 -2.810849175 -0.9720526352
-0.4668516086 -2.728895986 -1.155498279
-0.5385894909 -2.633036969 -1.333055768
-0.6075828447 -2.523760598 -1.503820311
-0.6734800955 -2.401623723 -1.66692173
-0.7359454461 -2.267248723 -1.821528899
-0.6335969504 -2.262997576 -1.81458097
-0.8493263206 -1.964582202 -2.10215641
-0.8996640815 -1.797833 -2.22674674
-0.7875006827 -1.783692381 -2.564087522
-0.9863530092 -1.43774696 -2.441309366
-1.022262429 -1.246245039 -2.530188299
-1.052962634 -1.048392539 -2.606173973
-1.078297183 -0.8451976705 -2.668879181
-1.098136976 -0.6376958687 -2.717984393
-1.112380915 -0.4269445148 -2.753239379
-1.120956416 -0.2140175496 -2.774464489
-1.12381978 0 -2.781551564
-1.120956416 0.2140175496 -2.774464489
-1.112380915 0.4269445148 -2.753239379
-1.268871961 0.5962223104 -2.528250965
-1.22195983 1.049370508 -2.473871844
-1.052962634 1.048392539 -2.606173973
-1.022262429 1.246245039 -2.530188299
-0.9863530092 1.43774696 -2.441309366
-0.9454173604 1.621922452 -2.33999008
-0.8996640815 1.797833 -2.22674674
-0.8493263206 1.964582202 -2.10215641
-0.7946605874 2.121320344 -1.966853973
-0.7359454461 2.267248723 -1.821528899
-0.6734800955 2.401623723 -1.66692173
-0.6075828447 2.523760598 -1.503820311
-0.5385894909 2.633036969 -1.333055768
-0.4668516086 2.728895986 -1.155498279
-0.3927347575 2.810849175 -0.9720526352
-0.3166166201 2.878478921 -0.783653634
-0.238885077 2.931440598 -0.5912613135
-0.1599362303 2.969464326 -0.3958560609
0.03875620549 2.827858086 -0.2355773547
-6.881411483e-17 3 -1.70320911e-16
-5.676550096e-17 -3 -1.747062478e-16
-0.1421285526 -2.76621339 -0.1459749901
-0.1319331107 -2.969464326 -0.4060483629
-0.14692222 -3.135311778 -0.5852127758
-0.2611804438 -2.878478921 -0.8038307521
-0.3239711113 -2.810849175 -0.9970805557
-0.3851108962 -2.728895986 -1.185249465
-0.6818993067 -2.668023684 -1.17570598
-0.5012016013 -2.523760598 -1.542539917
-0.5555609499 -2.401623723 -1.709840789
-0.6070892872 -2.267248723 -1.868428705
-0.8289738488 -2.205681947 -1.932448949
-0.7006183859 -1.964582202 -2.156281672
-0.7421425444 -1.797833 -2.284079891
-0.7798849147 -1.621922452 -2.400238963
-0.8136531701 -1.43774696 -2.504166967
-0.8432752356 -1.246245039 -2.59533431
-0.8686001637 -1.048392539 -2.673276424
-0.8894989045 -0.8451976705 -2.737596135
-0.9058649628 -0.6376958687 -2.787965683
-0.9176149408 -0.4269445148 -2.824128397
-0.9246889635 -0.2140175496 -2.8459
-0.9270509831 0 -2.853169549
-0.9246889635 0.2140175496 -2.8459
-0.9176149408 0.4269445148 -2.824128397
-0.9058649628 0.6376958687 -2.787965683
-0.8894989045 0.8451976705 -2.737596135
-0.8686001637 1.048392539 -2.673276424
-0.8432752356 1.246245039 -2.59533431
-0.8136531701 1.43774696 -2.504166967
-0.7798849147 1.621922452 -2.400238963
-0.7421425444 1.797833 -2.284079891
-0.7006183859 1.964582202 -2.156281672
-0.6555240367 2.121320344 -2.017495536
-0.6070892872 2.267248723 -1.868428705
-0.5555609499 2.401623723 -1.709840789
-0.5012016013 2.523760598 -1.542539917
-0.4442882443 2.633036969 -1.367378615
-0.3851108962 2.728895986 -1.185249465
-0.3239711113 2.810849175 -0.9970805557
-0.2611804438 2.878478921 -0.8038307521
-0.1970588607 2.931440598 -0.6064848113
-0.1319331107 2.969464326 -0.4060483629
-0.06613505992 2.992356344 -0.2035427851
-5.676550096e-17 3 -1.747062478e-16
-4.444033126e-17 -3 -1.782404333e-16
-0.05177553129 -2.992356344 -0.2076603137
-0.1032872263 -2.969464326 -0.4142624381
-0.04576285702 -3.056355072 -0.4305562006
-0.2044718226 -2.878478921 -0.8200916876
-0.2536291103 -2.810849175 -1.0172508
-0.2957283939 -2.753527192 -1.083570163
-0.34782247 -2.633036969 -1.395039731
-0.3923785542 -2.523760598 -1.573744424
-0.4349351672 -2.401623723 -1.744429676
-0.4752754503 -2.267248723 -1.906225714
-0.5131938387 -2.121320344 -2.058308063
-0.5484971089 -1.964582202 -2.199901746
-0.5810053635 -1.797833 -2.330285234
-0.610552948 -1.621922452 -2.448794123
-0.7626441043 -1.65853977 -2.409809633
-0.6601796898 -1.246245039 -2.647836113
-0.6800059607 -1.048392539 -2.727354942
-0.696367077 -0.8451976705 -2.792975795
-0.7091796663 -0.6376958687 -2.844364284
-0.7183784386 -0.4269445148 -2.881258545
-0.723916519 -0.2140175496 -2.903470572
-0.7257656868 0 -2.910887179
-0.723916519 0.2140175496 -2.903470572
-0.7183784386 0.4269445148 -2.881258545
-0.7091796663 0.6376958687 -2.844364284
-0.696367077 0.8451976705 -2.792975795
-0.5509954191 1.279309043 -2.934867565
-0.6601796898 1.246245039 -2.647836113
-0.6369892947 1.43774696 -2.554824518
-0.610552948 1.621922452 -2.448794123
-0.5810053635 1.797833 -2.330285234
-0.5484971089 1.964582202 -2.199901746
-0.5131938387 2.121320344 -2.058308063
-0.4752754503 2.267248723 -1.906225714
-0.4349351672 2.401623723 -1.744429676
-0.3923785542 2.523760598 -1.573744424
-0.34782247 2.633036969 -1.395039731
-0.3014939622 2.728895986 -1.209226235
-0.4268682698 2.842013922 -0.9407057668
-0.2044718226 2.878478921 -0.8200916876
-0.1542725934 2.931440598 -0.618753576
-0.1032872263 2.969464326 -0.4142624381
-0.05177553129 2.992356344 -0.2076603137
-0.146685087 2.906193906 -0.1608965718
-0.1712761957 -2.916950223 0.06479270824
-0.03716375748 -2.992356344 -0.2107661421
-0.07413813696 -2.969464326 -0.4204582683
-0.1107347255 -2.931440598 -0.6280078355
-0.1467670353 -2.878478921 -0.8323572188
-0.1820514538 -2.810849175 -1.0324651
-0.2509657312 -2.783766672 -1.263404872
-0.2496621396 -2.633036969 -1.415904353
-0.2816438782 -2.523760598 -1.597281806
-0.3121904241 -2.401623723 -1.770519877
-0.3411461192 -2.267248723 -1.934735784
-0.3683634119 -2.121320344 -2.089092721
-0.3937036091 -1.964582202 -2.23280412
-0.3055705836 -1.77534153 -2.479767137
-0.4382464288 -1.621922452 -2.485419004
-0.4572220713 -1.43774696 -2.593035221
