# .PCD v0.7 - Point Cloud Data file format
VERSION 0.7
FIELDS x y z normal_x normal_y normal_z rgb
SIZE 4 4 4 4 4 4 4
TYPE F F F F F F F
COUNT 1 1 1 1 1 1 1
WIDTH 510
HEIGHT 1
VIEWPOINT 0 0 0 1 0 0 0
POINTS 510
DATA ascii
0.2148129912 -4.034812398 -3.826586316 0.6515254247 0.2871662879 0.7021752944 4.591774808e-40
0.2207932977 -4.031726222 -3.829800968 -0.6526790001 -0.288854071 -0.7004094863 4.591774808e-40
-4.26883722 2.607949916 -1.73965591 0.1514982598 -0.01975561052 0.9882600837 6.979497708e-39
-0.2575242189 7.356174106 -2.411128115 0.249418807 0.2087888666 0.9456201499 2.112216412e-39
-4.334732118 3.971714876 -1.659310513 -0.1043921016 -0.0248856426 -0.9942248206 7.530510685e-39
-2.540086515 5.776724796 -1.244975909 0.3660671814 0.07281573883 0.9277352461 4.959116793e-39
0.5870264823 -5.745745933 4.372545679 0.1337531016 -0.3398513895 0.9309195136 3.306077862e-39
-0.2944290987 7.39654799 -2.465027503 -0.3160497811 -0.1781428761 -0.9318678294 5.785636258e-39
-3.046082795 3.388462607 -1.548698549 -0.2316961994 -0.2887018702 0.9289607641 1.010190458e-39
-0.5816003204 -3.981532843 -2.268067302 0.7398837529 0.01462337237 0.6725757869 0
-0.782392263 -4.247508083 -2.106056229 0.5121780464 -0.3515215401 0.7836493193 1.102025954e-39
-0.8932521117 -3.985970339 -2.051824493 -0.2894303961 -0.04484918163 -0.9561477902 0
-0.8294844168 -4.051731186 -2.048099138 -0.3850007909 0.06695466915 -0.9204843634 0
-1.065970915 -4.011177247 -2.027673303 0.2483412063 -0.03155340172 0.9681585759 2.3877229e-39
-1.112508996 -4.321330594 -2.04793786 0.249620624 -0.2267320056 0.9414255901 3.765255342e-39
-1.189874734 -3.991267133 -2.013140866 -0.2107735521 0.01494803049 -0.9774206188 0
-1.391436546 -4.360205399 -2.028518051 -0.2562440574 0.200176646 -0.9456575984 4.316268319e-39
-1.206846218 -4.12845736 -2.013242486 0.2423458023 -0.1227538941 0.9623928479 2.755064885e-40
-1.59937878 -4.260754458 -2.007854838 -0.2410643171 0.07430211755 -0.9676606794 2.020380915e-39
-1.425372151 -3.925345636 -2.023265318 -0.146027308 -0.0390216359 -0.9885106662 9.183549616e-40
-1.852980089 -4.216897264 -1.954451824 -0.3045781773 -0.01472043924 -0.9523735835 3.306077862e-39
-1.665300082 -4.012140522 -2.019542177 0.2110116703 0.06389904315 0.9753927349 2.846900381e-39
-1.666526378 -4.101083063 -1.987333557 -0.2439188728 0.009074702355 -0.9697531816 3.306077862e-39
-1.694793718 -4.330981617 -1.966302834 0.3202460093 -0.1154181428 0.9402771644 2.020380915e-39
-2.114660373 -4.175273975 -1.881770378 -0.4082834178 -0.07999022992 -0.909343837 3.306077862e-39
-2.129826182 -4.384226407 -1.851831118 0.4186788478 -0.00987967934 0.9080806211 1.010190458e-39
-2.397746788 -4.409316795 -1.707648888 0.5548133177 -0.008026879021 0.8319361464 1.010190458e-39
-2.234528157 -4.301369611 -1.811483203 0.4610185988 0.04192700842 0.8863994458 1.010190458e-39
-2.492931928 -4.201237979 -1.630866288 -0.6422832468 -0.04466174475 -0.7651650538 1.19386145e-39
-2.587696178 -4.337276508 -1.543143942 -0.6754871318 0.05637569347 -0.7352135172 3.214242366e-39
-3.94557118 1.949897795 -1.920442337 -0.369759213 0.2903929258 -0.8825814824 1.285696946e-39
-4.201793108 1.93173882 -1.820287694 -0.3757570933 0.232680623 -0.8970319585 2.295887404e-39
-3.686788965 7.132377564 -6.663459272 0.9293688329 -0.02621449166 0.3682205492 7.346839693e-39
-1.213300852 6.237696669 -1.796350286 0.006092773035 0.4761786728 0.8793274417 3.030571373e-39
1.681080425 7.707480689 -3.354609266 0.473139766 0.4680834824 0.7463488563 3.489748854e-39
1.09583111 -5.693765622 4.224766152 -0.3423162171 0.2711731365 -0.8996025442 3.306077862e-39
-5.993075157 1.659431381 3.05333221 0.5415773625 0.8280336845 -0.1451005781 3.857090839e-39
-4.807258736 2.85254951 -1.694831279 -0.2978303629 -0.05308450772 -0.9531417051 4.591774808e-40
-2.434631423 6.605121929 -1.213013219 0.7381263422 -0.4425462785 0.5092369727 3.030571373e-39
-4.976422783 0.8265450189 -1.8689929 0.5747424504 -0.3424410188 0.7432397086 4.959116793e-39
-4.381536382 0.3580216503 -2.391503297 0.4095343163 -0.2307638736 0.8826265793 3.948926335e-39
7.901367319 -3.814891675 -1.180610696 0.5437213253 -0.02391813727 -0.8389249329 5.510129769e-39
7.766368896 -4.056038536 -1.219496175 -0.5164980959 0.1896798615 0.8350157286 1.744874427e-39
7.703194935 -4.014947779 -1.250689529 0.5030153786 -0.1825628918 -0.8447758989 1.744874427e-39
7.556629618 -4.178585387 -1.292363578 0.4485391668 -0.1956795675 -0.8720791952 1.744874427e-39
7.090461515 -3.891989419 -1.422397044 0.2877678973 0.05643677389 -0.9560358402 3.948926335e-39
7.283180221 -3.811952635 -1.397004645 0.2704824381 0.07944813118 -0.9594411108 3.948926335e-39
7.276962936 -4.190552722 -1.414205236 0.2963329628 -0.1222345186 -0.9472304353 8.265194654e-40
6.973807862 -3.8922258 -1.459913773 -0.2769911405 -0.02065971532 0.9606503444 3.948926335e-39
7.106964916 -4.129867277 -1.444752363 0.2660739674 -0.07736589465 -0.9608429436 3.948926335e-39
6.917670694 -4.266340585 -1.480785966 0.2492041123 -0.1372317199 -0.958678656 3.948926335e-39
7.021409624 -3.970748917 -1.46120944 0.2728641844 0.008123209138 -0.9620182692 3.948926335e-39
6.576510133 -4.073099403 -1.545801747 0.3700937242 -0.1601572005 -0.915084863 3.948926335e-39
6.685558919 -4.035210003 -1.536369783 -0.2746357415 0.0443423327 0.9605253599 3.948926335e-39
6.343973572 -4.090128451 -1.656468461 0.4896261393 -0.2691864035 -0.8293400532 3.948926335e-39
6.36405347 -4.248352381 -1.598170974 -0.4193103827 0.2708822703 0.8664880834 3.948926335e-39
6.431953475 -4.002499307 -1.638646857 0.5165305389 -0.2189270782 -0.8278086354 3.948926335e-39
-4.949354796 1.066577425 -1.75415205 -0.5578248273 0.3414755208 -0.7564561658 4.959116793e-39
1.620940432 8.028617499 -3.499517375 0.3365469811 0.3850014196 0.8593660666 3.489748854e-39
1.494719791 -5.821027068 -3.384186106 -0.1367865314 0.585822508 0.7988125149 6.336649235e-39
-4.051283204 5.824043436 -5.527726324 0.4265760854 0.794883828 0.43150034 4.959116793e-39
-4.236777113 -2.856671919 1.882444284 -0.4636308525 -0.7838038843 0.4131560282 7.346839693e-40
-3.120431806 -3.421193209 1.598145406 0.4491518508 0.800461017 -0.3968939092 3.122406869e-39
-1.835427651 1.266880809 -2.788099864 0.07084838094 -0.3834584834 0.9208366296 2.755064885e-40
-1.944891455 1.034139925 -2.873811496 0.05865104725 -0.3547967948 0.9331019714 2.755064885e-40
1.951353419 -5.768621217 -3.341221008 0.1048209061 -0.6840813397 -0.7218346752 4.224432823e-39
-5.288337506 0.87119209 -1.558651283 -0.7010860295 0.2888333412 -0.6519614102 4.959116793e-39
1.47326483 1.11675178 -3.128897547 0.05749013886 -0.3987982688 0.9152348467 4.591774808e-40
-4.604993555 2.441127024 -1.671618343 -0.2926407004 -0.08200787591 -0.9526993905 4.591774808e-40
4.965789417 -3.698442923 -3.445916272 -0.5858514277 0.1251001893 0.8007047192 0
4.721545988 -4.041651091 -3.525817109 0.4599541994 -0.2802311257 -0.8425631434 2.295887404e-39
4.785766534 -3.699636744 -3.56588786 -0.4946559671 0.1210165426 0.8606221416 0
4.657210372 -3.658926713 -3.636387636 -0.412230461 0.11970577 0.9031813637 4.040761831e-39
4.514426651 -4.064116509 -3.617724841 -0.4117761831 0.2474383178 0.8770488321 2.295887404e-39
4.503464293 -3.720533972 -3.668417534 0.3681587089 -0.1298211569 -0.9206550018 5.96930725e-39
4.205616669 -3.949833838 -3.718755774 -0.2834690839 0.1645990365 0.9447499329 3.857090839e-39
4.157398386 -3.828877678 -3.772192118 0.2821177565 -0.169427282 -0.9443007824 2.020380915e-39
4.353867763 -3.672607217 -3.726543215 0.3315247174 -0.1240937346 -0.9352497563 1.285696946e-39
4.305761685 -3.709204539 -3.730632579 0.3249562003 -0.1218309057 -0.9378489742 1.285696946e-39
3.982654735 -4.112690596 -3.776579406 0.2514309998 -0.2587524683 -0.9326465636 9.183549616e-40
3.746643923 -3.97516294 -3.833793873 0.2256454593 -0.1935592008 -0.9547873912 7.346839693e-40
3.737370246 -3.706948024 -3.873925713 0.2366336353 -0.155198605 -0.9591235143 3.489748854e-39
3.599173962 -3.685953252 -3.901023849 0.2393159764 -0.1437794459 -0.960237124 3.489748854e-39
3.484938493 -3.927690458 -3.886380498 0.206168293 -0.2131186864 -0.9550262093 2.755064885e-39
3.273000328 -3.714534011 -3.964903461 0.2480567925 -0.2289477833 -0.9413026826 4.683610304e-39
3.566208234 -3.689259156 -3.895876912 0.2476942624 -0.1579569012 -0.9558750806 4.683610304e-39
3.34418541 -3.925513635 -3.923087181 -0.206087695 0.2253580284 0.9522298152 2.755064885e-39
3.252259287 -3.658433282 -4.007792589 -0.2428643874 0.1967409673 0.9498999322 7.346839693e-39
3.26450749 -3.751432227 -3.974809697 -0.2540895841 0.2174325942 0.9424232331 4.683610304e-39
2.938329059 -4.012431094 -3.972570893 -0.2056533799 0.249471824 0.9462930288 2.3877229e-39
3.015052877 -3.980945064 -3.955139829 -0.2120695798 0.2452159276 0.94598924 2.3877229e-39
2.648960173 -3.813342592 -4.121620689 0.2454693294 -0.2889644658 -0.925334721 7.346839693e-39
2.784790693 -3.748199485 -4.102864387 0.2513094445 -0.2633655166 -0.9313872276 5.510129769e-40
2.453837835 -3.905125054 -4.145718071 0.2309142955 -0.3091549359 -0.9225517946 5.050952289e-39
2.715660779 -3.933543217 -4.060950166 0.221767697 -0.2769833833 -0.9349327751 1.377532442e-39
2.448687213 -3.791039151 -4.195784827 0.2289966589 -0.2731958512 -0.9343043172 2.479558396e-39
2.297255816 -3.888039519 -4.205558524 0.1982086489 -0.2926840586 -0.9354407375 7.346839693e-39
2.00366517 -3.831540122 -4.274411058 0.1471235104 -0.2967854092 -0.9435428414 1.836709923e-39
1.871623058 -3.966229355 -4.252832281 0.1078751872 -0.3545835195 -0.928780637 4.591774808e-40
2.098619356 -3.77639159 -4.290267712 -0.1866858473 0.2631859012 0.946510209 1.836709923e-39
2.149849341 -3.652146054 -4.29843139 -0.1750584269 0.2290103024 0.9575535643 1.836709923e-39
1.791763258 -3.937000104 -4.279785725 0.0822165304 -0.3347978479 -0.938696353 7.255004196e-39
1.731745146 -3.6564628 -4.353436711 -0.1323935855 0.2680388653 0.9542678373 4.959116793e-39
1.85112971 -3.827399536 -4.300924294 -0.1110992319 0.300033622 0.9474369564 1.836709923e-39
1.647860896 -3.922534704 -4.283480676 -0.04752251629 0.3590062019 0.9321245397 4.591774808e-40
1.624178651 -3.872473255 -4.302877141 -0.04436921948 0.3599131288 0.9319302077 2.112216412e-39
1.527348664 -3.925582065 -4.296661909 -0.01619480199 0.3440906525 0.9387967572 2.112216412e-39
1.425921397 -3.857906959 -4.309121386 0.01238627254 0.3833872473 0.9235046285 3.58158435e-39
0.924346293 -3.81845954 -4.285870819 -0.181691624 -0.4183429873 -0.8899310641 4.316268319e-39
1.205134899 -3.63001172 -4.426405033 -0.02616327297 -0.3594657259 -0.9327914424 1.744874427e-39
0.804928815 -3.909939794 -4.21821245 -0.2743714317 -0.3964551658 -0.8760956677 2.020380915e-39
0.7074612688 -3.918732088 -4.181009716 0.3586229286 0.3799643739 0.8526527251 2.020380915e-39
0.6406071267 -3.839301709 -4.203999761 0.371833895 0.3924195681 0.841276671 2.020380915e-39
0.4747420774 -3.840190853 -4.09605254 0.4976704508 0.3494933291 0.793837852 2.020380915e-39
0.3314618979 -3.669075722 -4.062796431 0.595733416 0.3160519054 0.7383853263 4.591774808e-40
0.4729251541 -3.866698165 -4.0815836 0.4970045161 0.3541676966 0.7921816418 2.020380915e-39
0.252277481 -3.598449666 -4.000986285 0.6339569818 0.3122485724 0.7075304758 4.591774808e-40
-4.306995376 0.3384329893 -2.42777178 -0.4009117815 0.2301776225 -0.886728823 3.948926335e-39
-4.077301191 8.70016484 -6.837912281 0.709875647 0.297810813 0.638267409 9.183549616e-41
-4.590292494 3.816317134 -1.615848153 0.2281547465 -0.06034470218 0.9717530183 0
-1.287257916 6.258536355 -1.947381657 0.2732675443 0.3430290394 0.8986967939 3.030571373e-39
-3.206926462 4.277830531 -1.467902127 -0.48226728 -0.1564385545 0.8619427181 1.836709923e-39
-4.232044062 -2.387037038 2.554198034 0.4390213799 0.6417715298 -0.6288000728 4.959116793e-39
-0.4259410967 7.60013104 -2.297547644 -0.4044285737 0.1403056879 -0.9037432394 4.959116793e-39
3.84251332 0.5763884596 -3.158864383 -0.1430312609 -0.4925927438 0.8584255629 3.857090839e-39
-0.7006867504 -4.162711718 -2.139953043 -0.5591514611 0.1891528208 -0.8071993892 0
-0.6071817252 -4.034038748 -2.226167633 -0.6620559409 0.09553618422 -0.7433402778 0
-0.8837201421 -4.101596661 -2.029297257 -0.3025725017 0.05607905638 -0.9514751813 1.102025954e-39
-0.953914367 -3.894619583 -2.05024154 0.2908007952 0.04874553841 0.9555410875 0
-1.063882468 -3.954582285 -2.036820983 0.3036698401 0.0005890626414 0.9527771414 0
-0.9609040438 -3.851781986 -2.062874615 0.2620355993 0.0901306477 0.9608401589 0
-1.339720593 -4.18607209 -2.027970188 0.177880829 -0.0800028295 0.9807945544 2.020380915e-39
-1.460035526 -4.034545147 -2.035812492 0.138744663 0.02673596279 0.9899672251 5.510129769e-40
-1.277317858 -4.258549858 -2.031946709 0.1858270955 -0.1490785479 0.9712074326 2.020380915e-39
-1.70472567 -4.118644326 -1.986908772 -0.2431692223 -0.0203737501 -0.96976989 3.306077862e-39
-1.644175595 -3.989585354 -2.039827446 0.16469683 0.1307674318 0.9776373729 3.306077862e-39
-1.805108377 -3.926967134 -2.006581967 -0.2478612184 -0.122155474 -0.9610633988 9.183549616e-40
-1.821407853 -3.843962377 -2.018750091 0.241919514 0.1645765903 0.956237154 3.948926335e-39
-2.079970069 -4.095899887 -1.893961472 0.3812848668 0.09468471549 0.9195959194 1.102025954e-39
-2.067107981 -4.010815035 -1.929947524 0.3551804199 0.1304691652 0.9256482411 1.102025954e-39
-2.030953943 -3.931962927 -1.959813353 0.3464567002 0.1686337714 0.9227840517 7.346839693e-40
-2.28680549 -4.239056591 -1.7919029 -0.4736556461 -0.05803312554 -0.8787960431 3.214242366e-39
-2.24656869 -4.193229493 -1.820377868 0.4587670144 0.0719485522 0.8856388837 3.214242366e-39
-2.37969319 -4.108766411 -1.736281625 0.5562555678 0.1135561581 0.8232160969 1.19386145e-39
-2.556998739 -3.808814518 -1.64701759 -0.6705316503 -0.2235765459 -0.7073901569 4.408103816e-39
-2.633546333 -4.268523574 -1.511683331 0.7292142081 -0.02152770645 0.683946779 3.214242366e-39
3.797739721 0.5043240686 -3.211427544 0.1353132708 0.5099387324 -0.8495015056 3.214242366e-39
-4.578079729 0.1047774665 -2.368039906 0.4633136344 -0.1850853419 0.8666509634 2.663229389e-39
0.6787871553 -5.686161805 4.360635135 -0.2024113231 0.2372990371 -0.9501151632 3.306077862e-39
-1.427937921 6.638103924 -1.971179131 0.4379370957 0.1194025191 0.8910410421 3.030571373e-39
1.318251242 7.997938113 -3.310889858 -0.3606563785 -0.3942986571 -0.8452547223 3.489748854e-39
0.7466380266 -5.759179777 4.313028032 0.1993212291 -0.3273548177 0.9236394702 3.306077862e-39
-2.870048329 -2.198419794 3.184686167 0.09477133832 0.5076485755 -0.8563359838 1.836709923e-40
-2.926761537 5.040455118 -1.112541959 -0.4264575304 -0.04934442961 0.9031606181 4.959116793e-39
-4.881671091 4.750219442 -1.512307046 0.6705697518 0.2322714374 0.7045467957 7.530510685e-39
-3.548725141 -1.971536983 3.208835201 -0.2450730726 -0.4591501799 0.8538854147 4.959116793e-39
-4.624587048 0.03025612262 -2.36145394 0.4669054768 -0.1717762479 0.8674630807 2.663229389e-39
7.632515647 -3.932438315 -1.318086424 0.4076554583 -0.06687800699 -0.9106834573 1.744874427e-39
7.929692865 -3.89761501 -1.154450689 -0.5767467124 0.08518904446 0.8124691111 5.510129769e-39
7.903716919 -4.01201449 -1.129527579 -0.5786610958 0.1899354854 0.7931430183 5.510129769e-39
7.393578696 -3.786474794 -1.399031927 0.2753777031 0.1255079391 -0.9531080095 3.948926335e-39
7.395495141 -3.761584876 -1.374142643 0.2884222845 0.1152020731 -0.9505477727 3.948926335e-39
7.368822005 -3.824104053 -1.388283141 0.2831834056 0.0626846028 -0.9570150466 3.948926335e-39
7.048468698 -3.817376165 -1.419565868 0.3010350413 0.04602101378 -0.9525019529 3.948926335e-39
7.094980874 -4.056019599 -1.466417781 0.2651939801 -0.02477285092 -0.9638767861 3.948926335e-39
7.011240787 -3.786730495 -1.431109368 -0.3013199972 -0.07162342214 0.9508292931 3.948926335e-39
7.004639261 -3.706537027 -1.418576686 -0.3103988345 -0.09721189677 0.9456227634 3.948926335e-39
6.721767279 -3.659368773 -1.475338474 -0.4740272357 0.04232959795 0.8794921176 3.948926335e-39
6.838087989 -3.971077544 -1.499049917 -0.2731801914 0.000803346755 0.9619625448 3.948926335e-39
6.731388707 -3.989909469 -1.512820684 -0.3136347151 0.04632055323 0.948413239 3.948926335e-39
6.6502146 -4.169683261 -1.535095264 -0.2851294875 0.1271291148 0.9500207174 3.948926335e-39
6.530329964 -3.717291593 -1.593387736 0.6379000424 -0.1360096309 -0.7580137968 3.948926335e-39
6.367337497 -4.136603682 -1.625089714 0.4366994797 -0.2766618569 -0.856009218 3.948926335e-39
-4.672053388 0.3425473475 -2.259299344 0.4989118137 -0.2213354475 0.8379126576 4.959116793e-39
-5.187039005 3.392984536 -1.52089334 -0.4337117717 0.1195610079 -0.8930841307 1.469367939e-39
-3.737619707 -2.473186095 2.7807895 0.3233545597 0.6477321912 -0.6898440674 4.959116793e-39
0.2196485003 -5.79733783 4.360817328 -0.06989390295 -0.528938085 0.8457773611 4.867281296e-39
-3.434621869 -3.500701748 1.239928271 0.340887374 0.8729755522 -0.3488688628 4.040761831e-39
-3.551044311 -3.431398431 1.311799806 0.345105027 0.8649728498 -0.364313724 3.122406869e-39
-1.591447499 1.262565441 -2.822923718 0.06880745972 -0.3627213151 0.929353959 2.755064885e-40
-2.891949835 3.272852577 -1.515588724 -0.2043581257 -0.3890692678 0.8982554544 5.785636258e-39
-2.920016961 3.224570438 -1.55477802 -0.1848767766 -0.3898103994 0.9021465679 2.663229389e-39
-4.820740326 0.04167403912 -2.268985628 -0.5316565564 0.172059517 -0.8292989983 2.663229389e-39
-3.515854814 3.706509932 -1.620211998 0.2295253742 0.09859752999 -0.9682957346 1.469367939e-39
-4.827839638 0.08144701134 -2.260925268 -0.5301235176 0.1775024146 -0.8291332516 2.663229389e-39
0.2898294389 1.239810197 -3.015640027 0.06779607587 -0.4396249656 0.8956191053 3.030571373e-39
4.815952357 -3.788864339 -3.544274013 -0.5118675854 0.148167035 0.8461903479 0
5.104967088 -3.819484682 -3.305868699 -0.6502490174 0.1482946418 0.7451073175 0
4.834278796 -3.527279241 -3.53462429 0.5091078376 -0.07118260627 -0.8577541875 4.040761831e-39
4.795856781 -3.750203078 -3.546600617 0.5003845034 -0.1357162042 -0.8551002635 0
4.723860006 -3.551994052 -3.61792533 -0.4680753391 0.08979256994 0.8791147657 3.489748854e-39
4.711642998 -3.519607599 -3.628157209 -0.4600475891 0.08516567667 0.88380033 3.489748854e-39
4.533179318 -3.568192651 -3.684366616 0.3576328497 -0.08317561042 -0.9301508279 3.489748854e-39
4.285239383 -3.699415976 -3.741716138 0.3200237588 -0.1180319487 -0.9400283256 1.285696946e-39
4.29754588 -3.444802619 -3.735477823 -0.3316056546 0.1146581795 0.9364246856 3.397913358e-39
4.279033741 -3.665682962 -3.750988657 -0.3085402353 0.1057030718 0.9453199373 3.489748854e-39
4.023822883 -3.619968767 -3.798808968 0.2772875119 -0.1326509709 -0.9515857059 3.489748854e-39
3.924332496 -3.453177259 -3.839774576 0.2660420372 -0.1314044929 -0.954963085 4.499939312e-39
3.694929661 -3.627581585 -3.884079987 0.2360589811 -0.148852845 -0.9602702682 3.489748854e-39
3.713776507 -3.763108201 -3.871330351 0.2309511199 -0.1613981071 -0.9594853992 4.683610304e-39
3.414868828 -3.750120907 -3.938054394 -0.2402363845 0.1795448589 0.9539654728 4.683610304e-39
3.504881949 -3.961405078 -3.897335111 -0.2156470043 0.2124657893 0.9530764177 2.755064885e-39
3.422603745 -3.527572133 -3.982525956 0.2903145346 -0.1788151029 -0.9400758639 3.489748854e-39
3.120615286 -3.626516543 -4.044678853 -0.2537603424 0.2209303121 0.9416981925 5.510129769e-40
3.08448473 -3.691026818 -4.041720469 0.244618861 -0.2304754759 -0.9418294261 5.510129769e-40
3.322177834 -3.622043398 -3.993628012 0.2691110836 -0.1820328745 -0.945750103 7.346839693e-39
3.104093467 -3.85272099 -3.974491964 0.2251616702 -0.2474826854 -0.9423664588 4.591774808e-40
2.99860805 -3.580084422 -4.113289151 -0.2548817374 0.2168436559 0.9423450158 5.510129769e-40
2.934805555 -3.548890258 -4.118525682 -0.2615215374 0.2299673376 0.9374014664 3.397913358e-39
2.619244394 -3.657988777 -4.184614472 -0.2469782013 0.251752937 0.9357468818 5.510129769e-40
2.426210598 -3.766240848 -4.217449527 0.2196100362 -0.258027454 -0.9408470997 2.479558396e-39
2.306144118 -3.775747383 -4.227429291 0.2129990045 -0.2662581321 -0.940073418 1.836709923e-39
2.641028319 -3.91597224 -4.103052787 0.2378325723 -0.2956072921 -0.9252307801 7.346839693e-39
2.192600654 -3.756034387 -4.254584823 0.1875920482 -0.2678859597 -0.9450112888 1.836709923e-39
2.335316151 -3.759410925 -4.202100734 0.2127492068 -0.2849320029 -0.9346397856 2.479558396e-39
2.234580443 -3.467503182 -4.315938463 -0.1900562048 0.2135339486 0.9582702603 9.183549616e-41
2.213901402 -3.428466225 -4.326521726 -0.1887312975 0.2186581983 0.9573761485 9.183549616e-41
1.747413341 -3.783355746 -4.33083971 -0.0834931041 0.2861562244 0.9545383789 1.836709923e-39
1.57845282 -3.702740011 -4.374981983 0.06311225583 -0.2844565408 -0.9566092826 1.836709923e-39
1.685793827 -3.83633669 -4.307130252 -0.06787637939 0.3358739284 0.9394580892 2.112216412e-39
1.651976098 -3.586306292 -4.385881144 -0.109134891 0.2715777491 0.9562087124 1.744874427e-39
1.556546277 -3.705299283 -4.364449874 -0.06111954137 0.3167897404 0.9465245174 4.959116793e-39
1.427981224 -3.551670501 -4.427446314 -0.06816515403 0.290623769 0.9544062744 1.744874427e-39
1.442494562 -3.807919765 -4.336159349 -0.01092447669 0.3643987835 0.9311789207 4.959116793e-39
1.177637864 -3.684982947 -4.394773653 0.0711818003 0.3875742125 0.9190861663 1.744874427e-39
0.9970224961 -3.881641951 -4.285626564 0.1565753724 0.4086800997 0.8991466671 1.744874427e-39
0.8528661081 -3.85543503 -4.252518657 -0.2497637974 -0.4074403455 -0.8784135759 4.316268319e-39
0.7150127082 -3.616107314 -4.340600353 -0.3236181564 -0.3827599368 -0.8653127294 4.591774808e-40
0.7899401652 -3.786599618 -4.28060063 0.2802742804 0.3943613524 0.8751716697 4.316268319e-39
0.8060403944 -3.719092079 -4.308004568 0.2831223977 0.3960286991 0.8735004163 4.316268319e-39
0.4640199437 -3.625965141 -4.179803084 -0.5150195699 -0.3597493237 -0.778032947 4.591774808e-40
0.513523422 -3.98926212 -4.075223337 0.456697173 0.3762987868 0.8061184251 2.020380915e-39
0.5093044729 -3.788437908 -4.141811692 -0.4787175673 -0.3587642421 -0.8013224752 4.591774808e-40
0.5494355114 -3.872180188 -4.12415235 0.4525115777 0.3617390807 0.8150939268 2.020380915e-39
-4.158444645 8.516692116 -6.81985228 0.5055334522 0.8447497833 0.1755953654 9.183549616e-41
-2.826280017 4.997609982 -1.081082994 0.4211805353 -0.01517069165 -0.9068499362 4.959116793e-39
-1.696998818 1.429813095 -2.752957106 0.07077282929 -0.3992262932 0.914116827 2.755064885e-40
-2.014045875 6.604412667 -1.603528414 -0.6092266819 0.06833705217 -0.7900461363 1.010190458e-39
-5.251700259 -2.055144678 1.681217984 0.7622912309 0.5609931129 -0.3227983992 1.377532442e-39
-5.057359371 1.621825539 3.665016679 -0.1175043115 -0.8238150303 0.5545462403 3.857090839e-39
-1.013505356 6.355338006 -2.011764061 -0.1824080261 -0.4128934474 -0.892326349 3.030571373e-39
0.8099625554 7.964149905 -2.963913533 -0.4848958364 -0.201755111 -0.8509823165 3.489748854e-39
-0.7719587378 -3.765564458 -2.135942183 0.4357049461 0.24038284 0.867396847 2.3877229e-39
-0.6443150606 -4.001367718 -2.189552558 -0.618449877 0.07257072324 -0.7824661269 1.102025954e-39
-0.9969504426 -3.714144335 -2.091858925 0.2436216363 0.2315100018 0.9418341772 0
-0.9760124096 -3.710408732 -2.095279635 0.2692850173 0.2303435897 0.9351082345 0
-0.9700636376 -4.101787994 -2.028362138 0.3530948642 -0.1229636997 0.927471803 2.020380915e-39
-0.9384835743 -4.140754531 -2.043253729 0.3679967375 -0.1499835265 0.9176509919 2.020380915e-39
-1.007385332 -3.872933659 -2.046654836 0.2051711489 0.115996445 0.9718279809 0
-1.468076091 -3.701013753 -2.091923022 -0.07508526674 -0.1967045195 -0.977583518 2.846900381e-39
-1.469833189 -3.659155781 -2.077452029 -0.07504900091 -0.1802319521 -0.980756897 1.010190458e-39
-1.293027399 -3.809191934 -2.049077866 0.1344702881 0.1033181292 0.9855166695 3.030571373e-39
-1.397575316 -4.130674473 -2.020847595 0.1757934951 -0.0474046442 0.9832850283 2.755064885e-40
-1.64501012 -4.055309525 -2.010275415 -0.2366722839 -0.02537885342 -0.9712580213 2.846900381e-39
-1.953695709 -4.019711902 -1.962038669 -0.3201837934 -0.1252720806 -0.9390363381 1.102025954e-39
-1.664543265 -3.827036131 -2.065521907 0.1534911763 0.1667144197 0.9739849902 3.030571373e-39
-2.015305738 -4.082346708 -1.932596536 -0.3350411029 -0.1019429947 -0.9366723468 3.306077862e-39
-1.833003012 -3.935680019 -2.001098605 -0.270289917 -0.1323433513 -0.9536396584 9.183549616e-40
-2.043726206 -3.747786716 -1.993318872 0.3221731161 0.2165033307 0.9215914448 3.948926335e-39
-2.312786015 -3.957231096 -1.803988071 0.5060534767 0.1356326011 0.8517709059 9.183549616e-40
-2.528048269 -3.878335973 -1.671368039 0.6433495633 0.1987191228 0.7393321646 4.408103816e-39
-2.341595903 -4.067879418 -1.764716646 -0.551002614 -0.1147605926 -0.8265749366 1.19386145e-39
-2.518493487 -4.181884121 -1.635377514 -0.6546909221 -0.0387886353 -0.7549008136 3.214242366e-39
-4.793452185 3.049654248 -1.69781504 0.275871282 0.004030319085 0.9611861382 4.591774808e-40
2.981727147 0.6346774941 -3.160944837 -0.1177266877 -0.5001651435 0.8578900024 2.755064885e-40
-3.665345704 4.095176726 -1.627259458 0.2303527495 -0.02679492149 -0.9727382192 1.469367939e-39
-1.121313055 6.649223485 -1.796192184 -0.1903418026 -0.1103066186 -0.9755011266 3.030571373e-39
1.274450587 8.003879042 -3.212513815 0.5517144832 0.3327643857 0.7647738179 3.489748854e-39
0.7608990553 -5.881392876 4.291351061 -0.1458286905 0.6422336553 -0.7525090863 3.306077862e-39
-4.298425847 -2.221345548 2.680146327 -0.439423788 -0.5933992201 0.6743768235 4.959116793e-39
-2.661334711 5.238884814 -1.096585858 -0.3252512331 0.07405918834 0.9427231152 4.959116793e-39
-5.732266398 3.068481322 -1.226013164 -0.6019492228 0.05902761241 -0.7963497185 4.591774808e-40
2.680063433 0.6098827405 -3.233681411 0.1420900617 0.5122244362 -0.847016258 2.755064885e-40
8.04331601 -3.817137696 -1.061935185 -0.6573247342 0.1137078465 0.7449796772 2.112216412e-39
7.807121217 -3.72209313 -1.242961013 -0.4770873284 -0.09830351881 0.8733407693 1.744874427e-39
7.683992726 -3.659253552 -1.293502347 -0.3755013213 -0.1524331966 0.9142006773 1.744874427e-39
7.80930725 -3.707523091 -1.241196226 0.4776675984 0.1041457588 -0.8723458754 1.744874427e-39
7.456534197 -3.832268331 -1.385000408 0.308167726 0.0839845972 -0.9476176656 3.948926335e-39
7.503817983 -3.875142137 -1.36898954 0.3356647002 0.01460649813 -0.9418682813 3.948926335e-39
7.307298011 -3.80474862 -1.432563524 0.2989456446 0.1150345282 -0.947311226 3.948926335e-39
7.082457798 -3.950952704 -1.438733896 0.2790219835 0.01642029491 -0.9601443155 3.948926335e-39
7.26518754 -3.731372265 -1.380996492 0.2744188455 0.1091878777 -0.9553911788 3.948926335e-39
7.09798467 -3.917687229 -1.455195031 0.2815457747 0.02873033267 -0.9591175865 3.948926335e-39
6.794165996 -3.640375974 -1.443791513 -0.4503459028 0.009596982326 0.8928025906 3.948926335e-39
6.908679795 -3.61596249 -1.426644058 -0.3793320277 -0.09973601902 0.919869523 3.948926335e-39
6.779783357 -3.832500699 -1.474213631 -0.3457643953 -0.0005069064029 0.9383212275 3.948926335e-39
6.6148806 -3.900045508 -1.546153624 0.400857131 -0.08862543718 -0.9118437873 3.948926335e-39
6.506788592 -3.726652949 -1.633594358 0.571171311 -0.1501789676 -0.8069755952 3.948926335e-39
6.620777898 -3.967216192 -1.540236787 0.3972588734 -0.1079634521 -0.911333792 3.948926335e-39
2.839608361 0.6376826069 -3.188039877 0.1376917663 0.498749206 -0.8557395673 2.755064885e-40
-4.723349608 3.738864413 -1.611291565 0.2413612651 -0.154200058 0.9581059867 3.030571373e-39
-4.473525417 3.925366553 -1.651113685 0.1637906165 -0.07251454693 0.9838263436 3.673419846e-39
-0.7660346476 7.510457104 -2.289971288 -0.4889291304 0.1201447504 -0.8640101529 9.5508916e-39
-2.121705441 1.171008517 -2.808048958 0.05020713416 -0.3690985333 0.928033144 2.755064885e-40
-1.881951464 1.184556478 -2.830493834 0.06336826438 -0.3557510432 0.932429975 2.755064885e-40
-5.380699771 2.775596166 -1.433244737 0.4459069868 0.08780737719 0.8907619343 4.591774808e-40
-5.161989695 3.003071642 -1.57069139 -0.3978845413 -0.01142373159 -0.9173643715 4.591774808e-40
-4.45681047 2.084353987 -1.676815113 0.3515278338 -0.06200963193 0.9341215058 4.591774808e-40
-2.872160154 3.179690868 -1.550982963 0.1652893636 0.4128913519 -0.8956562721 2.663229389e-39
-5.164241637 3.03116569 -1.567610148 -0.3977779305 0.0009086933179 -0.9174812763 4.591774808e-40
-1.075599602 0.1341142852 -3.216201402 -0.1161981826 0.1887942516 -0.9751177944 1.744874427e-39
-4.131581334 2.656833366 -1.751663554 -0.1241102977 0.07052721293 -0.9897588324 6.979497708e-39
5.136108543 -3.518889377 -3.295157636 0.6659021664 -0.1127451295 -0.7374705693 5.510129769e-40
5.164544247 -3.49892134 -3.268999316 0.6680837941 -0.1228878753 -0.733868254 5.510129769e-40
4.975341756 -3.8102115 -3.420155844 0.6046845402 -0.1355123238 -0.7848522262 0
4.766588501 -3.421196672 -3.574338995 0.4757606256 -0.05792090641 -0.8776656514 3.673419846e-39
4.587302048 -3.796460872 -3.640338296 0.4093383 -0.1622098734 -0.8978474888 0
4.344340396 -3.519743811 -3.731639766 -0.3250821338 0.1018622955 0.9401838538 3.489748854e-39
4.351093815 -3.789522511 -3.713729135 -0.3322410248 0.1260605847 0.9347323844 5.96930725e-39
4.243032035 -3.80135954 -3.732873979 0.2907115057 -0.1382757267 -0.9467664146 5.96930725e-39
4.369680806 -3.804149389 -3.697680844 -0.3292275683 0.1349017649 0.9345644558 5.96930725e-39
4.043561568 -3.682555743 -3.784809432 0.2675792246 -0.1221866613 -0.9557571754 3.489748854e-39
4.06666862 -3.453009971 -3.813522285 0.2747343278 -0.1173720015 -0.9543295355 4.499939312e-39
3.914927275 -3.459959167 -3.853700087 0.2689622073 -0.1223018882 -0.9553541643 4.499939312e-39
3.907942983 -3.525450995 -3.841881449 0.2647124318 -0.1175918175 -0.9571308651 3.489748854e-39
3.766478505 -3.699016227 -3.862801523 0.2370369525 -0.1573356472 -0.9586756371 3.489748854e-39
3.647755623 -3.521207833 -3.895790494 0.2455204159 -0.1316435536 -0.9604112141 3.489748854e-39
3.811200638 -3.371370625 -3.897482155 0.2624032758 -0.1235856438 -0.9570115514 1.744874427e-39
3.283922892 -3.581642671 -4.009658827 -0.2672924346 0.1790447993 0.9468356321 5.510129769e-40
3.26953096 -3.433311294 -4.067782007 -0.2908184703 0.1767046667 0.9403191363 3.397913358e-39
3.386496444 -3.373470341 -4.020601257 0.3113318369 -0.1617190206 -0.9364397715 1.744874427e-39
3.355299773 -3.43587201 -3.999264454 0.3010643989 -0.1786774411 -0.9367147911 3.397913358e-39
2.907809095 -3.398763981 -4.175795116 0.2609835551 -0.212959744 -0.9415602643 3.948926335e-39
2.91746402 -3.492047717 -4.148584031 0.2634533394 -0.2281411828 -0.9373067474 3.397913358e-39
2.814033884 -3.627029643 -4.14443663 -0.2502285542 0.2519017189 0.9348428717 5.510129769e-40
2.914693425 -3.354307955 -4.185518537 -0.2701884845 0.1996558692 0.9418788227 3.948926335e-39
2.765261521 -3.339907056 -4.215061684 0.2565987717 -0.2187811828 -0.9414307539 3.948926335e-39
2.808153807 -3.282671067 -4.22081818 0.2601816293 -0.2048399664 -0.9435815322 9.183549616e-41
2.686103103 -3.607378079 -4.186361793 0.2472246918 -0.2533441125 -0.9352522186 2.295887404e-39
2.344880608 -3.373193811 -4.331802109 -0.209186644 0.2099643543 0.9550685409 9.183549616e-41
2.398280256 -3.676449001 -4.219952104 0.2111154223 -0.2555770428 -0.9434567577 1.836709923e-39
2.195043581 -3.316854009 -4.346435055 -0.1877520206 0.1941946415 0.9628279285 9.183549616e-41
1.952679521 -3.600547286 -4.345917381 -0.1504693772 0.2339744215 0.9605284674 1.836709923e-39
2.226713079 -3.313886312 -4.347920126 0.1878663522 -0.1951928674 -0.9626037493 4.408103816e-39
2.16294558 -3.335624118 -4.366036917 -0.1680962083 0.1894336103 0.9673978355 4.408103816e-39
1.790913164 -3.697602303 -4.347953118 -0.1122446367 0.266210561 0.9573573412 1.836709923e-39
1.592110564 -3.624307853 -4.387855964 0.07392554872 -0.2880542474 -0.9547563898 1.744874427e-39
1.752445125 -3.491121591 -4.383812017 -0.1666976156 0.24208451 0.9558279108 8.081523662e-39
1.535222945 -3.677613126 -4.373562025 -0.05609875168 0.319420608 0.9459510586 4.959116793e-39
1.212865125 -3.45269387 -4.487218679 0.005996576749 0.3040500981 0.9526371707 4.224432823e-39
1.361927811 -3.436208487 -4.47828113 -0.06670509405 0.2751688564 0.9590790014 2.3877229e-39
0.9761841081 -3.705200958 -4.366512589 -0.1470717715 -0.4047870277 -0.902506153 4.316268319e-39
0.9616338357 -3.53239396 -4.432409967 -0.1861717544 -0.3682379769 -0.9109011309 4.224432823e-39
0.9498032096 -3.587137534 -4.419311454 0.1840675196 0.3777085184 0.9074444464 1.744874427e-39
0.9996155959 -3.595962713 -4.410019259 -0.1328703994 -0.3948743942 -0.9090762728 4.224432823e-39
1.021225775 -3.32680732 -4.527469807 0.08114934344 0.2948932541 0.9520781232 1.010190458e-39
0.915292769 -3.416745301 -4.456757973 0.2014356045 0.3602244359 0.9108578665 5.142787785e-39
0.7147142592 -3.639250116 -4.329361547 0.3212187729 0.3727669382 0.8705534502 4.591774808e-40
0.6506660616 -3.586267965 -4.323752509 0.3532778169 0.366787305 0.8606171373 4.591774808e-40
0.461977134 -3.473079121 -4.2794401 -0.4796831004 -0.3567044625 -0.8016645493 6.428484731e-40
0.1153502123 -3.353344608 -4.00644427 0.6977934403 0.3474516322 0.6263878015 6.428484731e-40
-0.6693077306 0.4870988887 -3.139084178 0.1649410769 -0.2722454825 0.9479856742 2.755064885e-40
-4.3349962 2.738283786 -1.755715286 -0.101682625 -0.01242360987 -0.9947393114 6.979497708e-39
-3.450308245 3.885395047 -1.599260831 -0.2923151832 -0.07679407824 0.9532337086 1.469367939e-39
0.1571097587 6.914316827 -2.096007669 0.07026925538 0.682936504 0.7270900655 3.122406869e-39
0.2916664404 6.890086935 -2.125888308 -0.0129059516 0.6364378482 0.7712200086 3.122406869e-39
0.8714383768 7.716769139 -2.78133171 -0.4099998313 -0.3781481886 -0.8300024613 3.489748854e-39
1.067466826 8.222832308 -3.213321931 -0.5477108501 -0.1059724925 -0.8299293075 4.132597327e-39
-3.278596887 -5.839521697 3.513258701 -0.3885591456 -0.4044807424 0.8278992206 1.744874427e-39
-0.6638849115 -3.984654753 -2.179314213 -0.6009829815 0.04116760848 -0.7982009045 1.102025954e-39
-0.9943688695 -3.73098376 -2.083337987 0.1951269445 0.249020461 0.9486381215 0
-0.7187388673 -3.908913473 -2.132398024 0.5421033258 0.03514903526 0.8395763988 2.3877229e-39
-1.022804422 -3.74051677 -2.083409631 -0.2474867114 -0.1733278571 -0.9532616543 0
-1.136490355 -3.755729387 -2.068974019 0.1718351241 0.1784839233 0.9688220576 9.183549616e-40
-0.9193135204 -3.904601829 -2.069569619 0.3723261125 0.007916741511 0.9280682039 0
-1.054315352 -3.677602195 -2.087231789 0.2379644769 0.2090399269 0.9485121068 3.306077862e-39
-1.226015784 -3.557383422 -2.11076079 -0.1821241949 -0.2410100412 -0.953281143 2.663229389e-39
-1.426570208 -3.752822149 -2.077843431 -0.08125469465 -0.1654484017 -0.9828654542 3.030571373e-39
-1.486774664 -3.615026328 -2.08878274 -0.0723801186 -0.1951773166 -0.9780935198 1.010190458e-39
-1.711477073 -3.935529786 -2.010710933 -0.2314409986 -0.07930183501 -0.9696114083 9.183549616e-40
-1.967869739 -3.540782023 -2.084057915 0.268687012 0.2630968652 0.9265998754 1.010190458e-39
-1.785863227 -3.875177283 -2.035989409 -0.2061046829 -0.1671942355 -0.9641405226 9.183549616e-40
-1.631891631 -3.802983106 -2.069838142 -0.1320178561 -0.1526111236 -0.9794289819 2.846900381e-39
-1.8558443 -3.836298106 -2.035070958 0.2427382993 0.1819099674 0.9528834566 9.183549616e-40
-2.174687412 -3.481123579 -2.014551228 -0.3558131668 -0.2814118459 -0.8911814424 1.836709923e-40
-2.120716721 -3.872273238 -1.947162807 0.3711859845 0.1922914637 0.9084299411 9.183549616e-40
-2.395757102 -3.663682106 -1.830838913 0.5062300071 0.2540810669 0.8241201316 2.020380915e-39
-2.536815945 -3.787625122 -1.683288597 0.6409662553 0.2267518697 0.7333115635 4.408103816e-39
-2.47187643 -4.017037546 -1.690356748 0.6217112241 0.1327337937 0.771917673 1.19386145e-39
-2.592413517 -3.931618606 -1.601324778 0.6844189908 0.1709347734 0.7087679086 4.408103816e-39
2.281028034 0.6360647749 -3.284625 0.1249088527 0.5142807379 -0.8484769302 4.591774808e-40
-3.755378109 1.405547407 -2.312800229 0.4311659335 -0.3578319557 0.8282826989 1.285696946e-39
-5.454786966 3.353379406 -1.356844596 -0.5005837007 0.1380624668 -0.8546079299 1.469367939e-39
-1.071641182 6.371073207 -2.047471626 0.2319776095 0.3916090769 0.8904092989 3.030571373e-39
1.311663714 7.98991494 -3.219662572 -0.4692505248 -0.3749266371 -0.7995210828 3.489748854e-39
-2.317039765 -2.91224527 2.794028271 -0.3714737246 -0.4387655759 0.8182249332 1.836709923e-40
-1.082878697 6.159961463 -1.823601898 -0.07250558009 0.572935686 0.8163869429 3.030571373e-39
-3.181790522 4.97262903 -1.276801411 -0.5089259441 -0.1867976498 0.8402981741 4.959116793e-39
-5.298908519 2.777203624 -1.49011269 -0.4331119221 -0.08605178129 -0.8972230235 4.591774808e-40
2.395973172 0.5409688353 -3.33239637 0.1120163474 0.580092925 -0.8068113387 6.152978243e-39
7.811042715 -3.363915236 -1.14022352 0.4198688426 0.3456335921 -0.839194599 1.744874427e-39
7.845013632 -3.711414463 -1.221281162 -0.4895253213 -0.09386657984 0.8669221562 1.744874427e-39
7.80873231 -3.587946774 -1.220386517 -0.4196781846 -0.2094764322 0.8831703379 1.744874427e-39
7.853162204 -3.539758456 -1.182293341 0.4433500047 0.2416686433 -0.8631552816 5.510129769e-39
7.438903056 -3.736615821 -1.374581911 0.2795225872 0.1431855337 -0.9494024574 3.948926335e-39
7.441030014 -3.767330811 -1.384617401 0.3082003756 0.1062241729 -0.9453723888 3.948926335e-39
-5.777773667 3.007419347 -1.200264929 0.6584410618 -0.04879509718 0.751048871 4.591774808e-40
-4.082704275 1.43079849 -2.105239793 0.4618615339 -0.3697271977 0.8062169205 4.959116793e-39
-6.26463395 1.919564696 1.550920397 0.7668535563 0.6242977579 -0.1489561432 4.316268319e-39
-5.773396357 1.545135914 2.7003195 -0.5395155166 -0.8381747134 0.07991343625 3.857090839e-39
7.159299943 -3.503339598 -1.384384039 0.2834770851 0.2345756844 -0.9298467565 3.948926335e-39
6.899570016 -3.70701109 -1.432935497 0.3716431582 0.05333342183 -0.9268424403 3.948926335e-39
6.608264498 -3.695653389 -1.548982333 0.5039267039 -0.08236402777 -0.8598104699 3.948926335e-39
6.842819529 -3.421246656 -1.42230748 -0.5121464588 -0.097465222 0.8533501833 3.948926335e-39
-4.713183783 4.23130757 -1.571925365 -0.3389081571 -0.04197593283 -0.9398825895 7.346839693e-40
-5.150479895 3.846593173 -1.422585855 0.4378867067 -0.1728117626 0.8822648847 1.836709923e-39
-2.538459747 6.051020847 -1.258482339 0.5723821195 -0.06543564079 0.8173719387 9.183549616e-40
-4.169683041 3.717560202 -1.699127621 0.01605218188 -0.0699113128 0.9974240501 3.673419846e-39
-0.05893661848 7.901288446 -2.273394843 -0.58669257 0.4092885042 -0.6987665909 4.683610304e-39
-1.741383172 5.960365597 -1.659390543 -0.2800272848 -0.3883559156 -0.8779318895 3.030571373e-39
-3.747683927 7.746296705 -6.670891683 0.6180352718 0.1245549161 0.776220636 1.037741107e-38
-2.80731874 3.170752332 -1.536580071 -0.1517787178 -0.4385588513 0.8857930654 2.663229389e-39
3.456914058 1.522538182 -2.822913114 0.206249452 0.2876509509 -0.9352636495 3.857090839e-39
-5.197037333 3.591882243 -1.46341717 -0.446572501 0.1694351282 -0.8785583297 2.112216412e-39
-3.823670511 7.816531545 -6.706047584 -0.550900976 -0.07099635227 -0.8315453281 1.037741107e-38
-5.286640445 3.25311268 -1.475521116 -0.4576052415 0.07358870087 -0.8861050424 4.591774808e-40
-4.903493115 2.399093574 -1.573825785 0.3614809259 0.1170253618 0.9250062729 4.591774808e-40
1.617624082 1.30492195 -3.05421172 -0.04473938291 0.4353033316 -0.8991715059 4.591774808e-40
-5.612719232 3.0126121 -1.301647753 -0.5654635891 0.03439372467 -0.824055824 4.591774808e-40
5.096408712 -3.441428166 -3.338117254 0.6801566758 -0.09859571984 -0.7264060713 5.510129769e-40
4.9143154 -3.312662559 -3.497818361 0.5538948868 -0.09171315141 -0.8275198803 3.673419846e-39
5.009739566 -3.626660245 -3.417492184 0.6071362579 -0.1309929071 -0.783725987 0
4.94187302 -3.526949956 -3.476107667 0.5758794062 -0.09391372466 -0.8121226027 3.489748854e-39
4.81282842 -3.647774466 -3.555987917 0.4844992489 -0.1001071628 -0.8690448975 0
4.669652565 -3.220329818 -3.632727552 0.4529080699 -0.08168462088 -0.8878073569 2.112216412e-39
4.483556087 -3.5769092 -3.693510231 0.3521733956 -0.09100408908 -0.9314999491 3.489748854e-39
4.24313368 -3.455426211 -3.781520285 0.2921267815 -0.09916860711 -0.9512242275 3.489748854e-39
4.430252762 -3.461506841 -3.704571264 -0.3529823411 0.09028116326 0.9312640756 3.397913358e-39
4.34546547 -3.23138191 -3.764143454 0.3504476929 -0.1097067707 -0.9301348499 2.112216412e-39
4.192124474 -3.260889779 -3.808607518 -0.301028408 0.1188135089 0.9461845738 7.346839693e-40
4.188477362 -3.260357003 -3.807304764 -0.2987516987 0.1295333029 0.9454990989 2.112216412e-39
3.977337764 -3.545979281 -3.825163705 -0.2791064607 0.1112899679 0.9537893513 3.489748854e-39
3.637642013 -3.508022529 -3.901097627 0.2471414845 -0.1318998895 -0.9599601584 2.3877229e-39
3.891386751 -3.462520041 -3.861323325 0.2636943882 -0.1205693059 -0.957041437 3.765255342e-39
3.805061301 -3.613993458 -3.858860002 0.2551527615 -0.1270183313 -0.9585214717 3.489748854e-39
3.640657391 -3.424275342 -3.912812259 0.2407163026 -0.1293726443 -0.961934707 1.744874427e-39
3.44185844 -3.607531892 -3.954676365 -0.2660241414 0.1695878085 0.9489315736 3.489748854e-39
3.347962208 -3.218498278 -4.075079378 0.3150824985 -0.1696603495 -0.9337764106 6.979497708e-39
3.003215608 -3.458537298 -4.126316816 0.2598774461 -0.2167243918 -0.9410070409 3.397913358e-39
3.270060568 -3.615980499 -3.998350588 -0.271909683 0.1988916717 0.9415451275 2.755064885e-40
2.903767356 -3.465886866 -4.163310147 -0.2580855792 0.2222178053 0.9402186346 3.397913358e-39
2.708830292 -3.559411693 -4.199720079 0.2450593446 -0.2482439471 -0.9371877402 2.295887404e-39
2.667974463 -3.461107344 -4.216810097 0.2550629975 -0.2318374638 -0.9387194776 4.316268319e-39
2.775577023 -3.186318755 -4.243198409 -0.2536437081 0.1975206663 0.9469162876 2.663229389e-39
2.857483949 -3.582630762 -4.145066618 -0.262116353 0.2333365572 0.9364021938 2.295887404e-39
2.442202889 -3.567722223 -4.264167487 0.2159489007 -0.2282428574 -0.9493530799 4.316268319e-39
2.270692004 -3.558008743 -4.286208144 -0.1885320476 0.2164823192 0.9579097413 4.316268319e-39
2.18421939 -3.421733857 -4.342929605 -0.182182761 0.1978234765 0.9631590283 9.183549616e-41
1.964748992 -3.462690642 -4.372095866 -0.1578012909 0.2190379555 0.9628712929 8.081523662e-39
2.048365829 -3.282949375 -4.373776298 0.1804333268 -0.2003142824 -0.9629735214 3.673419846e-39
2.025376983 -3.309429366 -4.383472135 -0.1809467874 0.1807514689 0.9667404857 3.673419846e-39
1.683943513 -3.602016876 -4.38422886 -0.1067465168 0.2681433754 0.9574467669 1.744874427e-39
1.627802481 -3.482466138 -4.425728187 -0.1093679268 0.2417948267 0.9641441378 4.408103816e-39
1.661960279 -3.593132547 -4.386861843 -0.1057026699 0.2720723785 0.9564536405 1.744874427e-39
1.565909113 -3.490754021 -4.430290764 -0.09966781763 0.2524402896 0.9624657014 4.408103816e-39
1.660177815 -3.182564546 -4.478488757 -0.1687044521 0.2022566338 0.964692211 2.295887404e-39
1.506630565 -3.536928632 -4.43544167 -0.07513454678 0.2804596621 0.9569206748 1.744874427e-39
1.224850053 -3.480578747 -4.476109381 0.01861552283 0.3234670198 0.9460563141 4.224432823e-39
0.9651935122 -3.470109096 -4.462456208 0.1741883708 0.3494887424 0.9206063385 4.224432823e-39
0.9101678613 -3.533833761 -4.413333181 0.1874002404 0.359050829 0.914310479 4.224432823e-39
0.8844781212 -3.256495749 -4.512756969 -0.2003485325 -0.3485048206 -0.9156445028 2.755064885e-40
0.8766799937 -3.278540281 -4.504272164 -0.2114098099 -0.3468632372 -0.9137788501 2.755064885e-40
0.6727487642 -3.15897603 -4.497749217 -0.3210093064 -0.3404091191 -0.8837842818 6.70399122e-39
0.8349349314 -3.275215443 -4.517759703 0.1907911379 0.3107523323 0.9311453859 1.010190458e-39
0.6193472369 -3.262560155 -4.430022192 0.3661021462 0.3546510181 0.8603440439 2.755064885e-40
0.4194886432 -3.290481676 -4.287897361 0.4979021685 0.3824543109 0.7783457655 6.70399122e-39
0.5874671008 -3.365792359 -4.374575324 -0.4064424819 -0.3615296625 -0.8391071517 6.428484731e-40
0.3901731157 -3.437349452 -4.220466828 -0.5550880591 -0.3614405395 -0.7491581829 6.428484731e-40
-3.189157171 4.146349311 -1.482633363 0.4627450751 0.119726843 -0.8783692154 1.836709923e-39
0.9470286525 7.890918925 -3.046842616 0.4312225698 0.3682006755 0.8236961563 3.489748854e-39
-1.517762855 7.017961 -1.881172433 0.5749611836 -0.1233787033 0.8088246614 7.530510685e-39
-0.1748913877 6.677455449 -2.187493399 -0.003026444959 0.5088097925 0.8608736468 2.112216412e-39
1.537793564 7.532478493 -3.097078748 -0.3299603619 -0.5813185121 -0.7437707624 3.489748854e-39
0.4366620518 7.499927512 -2.678216212 0.2622171267 0.4160289654 0.8707250303 2.112216412e-39
-0.1679390881 7.55495996 -2.343007434 -0.3423255254 0.02684530749 -0.9391978301 5.785636258e-39
3.825046121 -5.812776044 -3.010186368 0.279247659 -0.7016280946 -0.6555446299 2.112216412e-39
-0.6453781612 -3.80075733 -2.228530479 0.6799503936 0.1947954082 0.7069103275 2.3877229e-39
-0.8225316867 -3.393441485 -2.256601233 0.4630765927 0.3142940293 0.8287215048 2.204051908e-39
-0.8732084605 -3.561774623 -2.16274352 0.3880642134 0.2413097749 0.8894806118 2.663229389e-39
-1.127841747 -3.702112726 -2.084904357 0.2228191176 0.1875831051 0.9566421585 3.306077862e-39
-1.228755285 -3.452384929 -2.133208217 0.18813437 0.2862720334 0.9394965576 2.755064885e-40
-1.275746453 -3.597565727 -2.107024103 -0.09735975835 -0.2410711009 -0.9656116206 2.846900381e-39
-1.222013301 -3.650445202 -2.092427382 0.159238473 0.2236768619 0.9615673508 3.306077862e-39
-1.461053714 -3.693718015 -2.081550422 0.07660453761 0.1756233588 0.9814724554 2.846900381e-39
-1.082168717 -3.615519446 -2.084857729 0.2691569494 0.1679626469 0.9483370107 2.663229389e-39
-1.63082497 -3.435641168 -2.144985651 0.08444938382 0.2583107742 0.9623636763 1.010190458e-39
-1.532584079 -3.588398749 -2.104701185 0.06080881999 0.2102108711 0.9757631255 1.010190458e-39
-1.467693903 -3.649313903 -2.099075439 -0.07198910231 -0.1876230394 -0.9795994917 2.846900381e-39
-1.58577835 -3.72210454 -2.066129236 -0.1246892363 -0.1620814656 -0.9788678117 3.948926335e-39
-1.761408466 -3.708401141 -2.081314026 0.1478046116 0.2044798161 0.9676475606 1.010190458e-39
-2.086831057 -3.389370389 -2.083289794 -0.2866303188 -0.3018621633 -0.909242704 4.591774808e-40
-2.087311863 -3.636239682 -2.013084029 0.3364215412 0.2384928951 0.9110113532 1.010190458e-39
-2.019501345 -3.760312501 -2.001535976 0.3193784336 0.215232688 0.9228609354 3.948926335e-39
-2.428948605 -3.483336847 -1.881529778 0.4874114251 0.3198758109 0.8124712723 4.408103816e-39
-2.392105957 -3.77284671 -1.810853616 -0.5332229109 -0.1952418193 -0.8231366589 4.867281296e-39
-2.497545833 -3.383001967 -1.866428641 0.4873613204 0.3583288648 0.7962910071 4.408103816e-39
-2.475066727 -3.806093356 -1.721505504 0.5911471162 0.2250614212 0.7745272388 4.959116793e-39
-2.733165618 -3.490838758 -1.609460588 0.6400410812 0.3785065217 0.6686405816 1.744874427e-39
-5.005794435 1.224585346 -1.653009336 0.6001254984 -0.3370108607 0.7254468043 4.959116793e-39
-3.723730437 1.485209411 -2.283046776 -0.4393327769 0.3801521431 -0.8139232515 1.285696946e-39
-1.155108525 6.315868422 -1.897425909 0.09535325421 0.4238660801 0.9006915693 3.030571373e-39
0.9765462531 7.922739972 -2.96672124 -0.4881302207 -0.3673879377 -0.7916785906 3.489748854e-39
-2.402998032 1.277458244 -2.743399255 0.09096705523 -0.3764715063 0.9219513001 6.428484731e-40
-2.458687372 1.054922834 -2.839544742 -0.1171197213 0.3396565853 -0.9332290046 6.428484731e-40
-3.071976818 1.917398113 -2.410694798 0.266691083 -0.462340408 0.8456460331 1.285696946e-39
-4.557061471 1.70315836 3.794037431 -0.1496240445 0.8293936696 -0.5382553168 9.183549616e-41
-0.07499575212 0.353796826 -3.273817148 -0.1799824701 0.3591645855 -0.9157549405 6.520320227e-39
-2.665099295 3.665485035 -1.287049594 0.4489224466 0.3881650933 -0.8048580603 1.836709923e-39
-3.330553481 1.098939359 -2.623844785 0.3386267596 -0.3058231915 0.8898337447 1.285696946e-39
-1.959119067 6.009289265 -1.560901659 -0.4037475952 -0.2401107349 -0.8827993625 3.030571373e-39
