# .PCD v0.7 - Point Cloud Data file format
VERSION 0.7
FIELDS x y z normal_x normal_y normal_z rgb
SIZE 4 4 4 4 4 4 4
TYPE F F F F F F F
COUNT 1 1 1 1 1 1 1
WIDTH 588
HEIGHT 1
VIEWPOINT 0 0 0 1 0 0 0
POINTS 588
DATA ascii
-2.384970857 1.048950386 1.490295195 -0.7919799925 0.3575716619 0.4948840248 0
-2.315418679 1.246900721 1.446834169 -0.7675680024 0.4251995922 0.4796297202 0
-2.234120911 1.43852892 1.396033686 -0.7391392381 0.4902585915 0.4618654568 0
-2.141362762 1.622778128 1.338071961 -0.706395628 0.5533234695 0.4414049782 0
-2.037725357 1.79878001 1.273312123 -0.6694967177 0.6138070645 0.4183479801 0
-1.923704465 1.965612915 1.202063962 -0.629559054 0.6699985131 0.393392158 0
-1.79986311 2.122411601 1.124679295 -0.5848822572 0.7241137837 0.365474997 0
-1.666853629 2.268391545 1.041565747 -0.5372098297 0.7737703383 0.3356859581 0
-1.525358067 2.402822536 0.9531495073 -0.4852024761 0.8201557771 0.3031881569 0
-1.376070429 2.524972262 0.8598642373 -0.4287816402 0.862762121 0.2679325056 0
-1.219754358 2.634237763 0.7621871156 -0.3589773212 0.9059903672 0.2243139261 0
-1.057211409 2.729953222 0.6606190079 -0.2973472753 0.9365157602 0.1858031992 0
-0.8893523719 2.811882466 0.5557290403 -0.2455464506 0.9571649856 0.1534344515 0
-0.7169934754 2.87956709 0.4480272483 -0.201053023 0.9714907692 0.1256318722 0
-0.5409805184 2.932566105 0.3380421459 -0.1603170092 0.9819689343 0.1001771857 0
-0.362187578 2.970467416 0.2263199172 0.1166128675 -0.990500743 -0.07286780696 0
-0.1815412329 2.99305491 0.1134395526 0.06289470168 -0.997246053 -0.03930097147 0
-1.558113995e-16 3.000556956 9.44076771e-17 4.938435017e-17 -1 -0 0
-1.622218734e-16 -3.000556956 8.627144493e-17 4.882975534e-17 1 -5.551115123e-17 0
-0.1890121507 -2.99305491 0.1004995433 0.06548299051 0.997246053 -0.03481792369 0
-0.3770925866 -2.970467416 0.2005036849 0.1214118057 0.990500743 -0.06455580221 0
-0.5632433451 -2.932566105 0.2994817989 0.1669144923 0.9819689343 -0.08875000983 0
-0.7464997163 -2.87956709 0.3969209398 -0.2093269043 -0.9714907692 0.1113010893 0
-0.9259516524 -2.811882466 0.4923372269 -0.2556513581 -0.9571649856 0.1359322383 0
-1.100718547 -2.729953222 0.5852624334 -0.3095839281 -0.9365157602 0.1646086945 0
-1.269950584 -2.634237763 0.6752447031 -0.3737502192 -0.9059903671 0.1987265166 0
-1.432699488 -2.524972262 0.7617798304 -0.4464271764 -0.8627621211 0.2373695402 0
-1.588130721 -2.402822536 0.844424083 -0.505169884 -0.8201557771 0.268603592 0
-1.735449211 -2.268391545 0.9227547138 -0.5593174823 -0.7737703383 0.2973943806 0
-1.873932396 -2.122411601 0.9963875293 -0.6089517604 -0.7241137838 0.3237853945 0
-2.002870161 -1.965612915 1.064944955 -0.6554671294 -0.6699985131 0.3485180549 0
-2.121583324 -1.79878001 1.128065863 -0.6970483372 -0.6138070646 0.3706271752 0
-2.229485692 -1.622778128 1.18543857 -0.7354657384 -0.5533234696 0.3910540699 0
-2.326061092 -1.43852892 1.236788622 -0.7695568376 -0.4902585914 0.409180629 0
-2.410704486 -1.246900721 1.281794312 -0.7991555233 -0.4251995923 0.4249185291 0
-2.483118926 -1.048950386 1.320297753 -0.8245721336 -0.3575716619 0.4384327806 0
-2.542886488 -0.8456544736 1.352076729 -0.8455023309 -0.2881322765 0.4495615638 0
-2.589687191 -0.6380435772 1.376961104 -0.8618405477 -0.2173452451 0.4582487478 0
-2.623264811 -0.4271771164 1.394814643 -0.8733761639 -0.1468438459 0.4643823439 0
-2.643517551 -0.2141371266 1.405583214 -0.8805297179 -0.07395489699 0.4681859558 0
-2.65024293 0 1.409159161 -0.8829475929 0 0.4694715627 0
-2.643517551 0.2141371266 1.405583214 -0.8805297179 0.07395489699 0.4681859558 0
-2.623264811 0.4271771164 1.394814643 -0.8733761639 0.1468438459 0.4643823439 0
-2.589687191 0.6380435772 1.376961104 -0.8618405477 0.2173452451 0.4582487478 0
-2.542886488 0.8456544736 1.352076729 -0.8455023309 0.2881322765 0.4495615638 0
-2.483118926 1.048950386 1.320297753 -0.8245721336 0.3575716619 0.4384327806 0
-2.410704486 1.246900721 1.281794312 -0.7991555233 0.4251995923 0.4249185291 0
-2.326061092 1.43852892 1.236788622 -0.7695568376 0.4902585914 0.409180629 0
-2.229485692 1.622778128 1.18543857 -0.7354657384 0.5533234696 0.3910540699 0
-2.121583324 1.79878001 1.128065863 -0.6970483372 0.6138070646 0.3706271752 0
-2.002870161 1.965612915 1.064944955 -0.6554671294 0.6699985131 0.3485180549 0
-1.873932396 2.122411601 0.9963875293 -0.6089517604 0.7241137838 0.3237853945 0
-1.735449211 2.268391545 0.9227547138 -0.5593174823 0.7737703383 0.2973943806 0
-1.588130721 2.402822536 0.844424083 -0.505169884 0.8201557771 0.268603592 0
-1.432699488 2.524972262 0.7617798304 -0.4464271764 0.8627621211 0.2373695402 0
-1.269950584 2.634237763 0.6752447031 -0.3737502192 0.9059903671 0.1987265166 0
-1.100718547 2.729953222 0.5852624334 -0.3095839281 0.9365157602 0.1646086945 0
-0.9259516524 2.811882466 0.4923372269 -0.2556513581 0.9571649856 0.1359322383 0
-0.7464997163 2.87956709 0.3969209398 -0.2093269043 0.9714907692 0.1113010893 0
-0.5632433451 2.932566105 0.2994817989 0.1669144923 -0.9819689343 -0.08875000983 0
-0.3770925866 2.970467416 0.2005036849 0.1214118057 -0.990500743 -0.06455580221 0
-0.1890121507 2.99305491 0.1004995433 0.06548299051 -0.997246053 -0.03481792369 0
-1.622221024e-16 3.000556956 8.622506904e-17 4.883314348e-17 -1 2.775557562e-17 0
-1.67857711e-16 -3.000556956 7.525990071e-17 7.569255823e-17 1 -9.714451465e-17 0
-0.1955622204 -2.99305491 0.0870699103 0.06775225283 0.997246053 -0.03016524646 0
-0.3901604381 -2.970467416 0.1737106189 0.1256192378 0.990500743 -0.05592928807 0
-0.5827621069 -2.932566105 0.2594624067 0.1726987847 0.9819689343 -0.07689045287 0
-0.7723690856 -2.87956709 0.3438808725 0.216580966 0.9714907692 -0.09642805874 0
-0.9580397895 -2.811882466 0.426546796 -0.2645107578 -0.9571649856 0.117767777 0
-1.138863096 -2.729953222 0.5070545191 -0.3203123192 -0.9365157602 0.1426122328 0
-1.313959738 -2.634237763 0.5850125664 -0.3867022435 -0.9059903671 0.1721709315 0
-1.482348579 -2.524972262 0.6599841088 -0.4618977643 -0.8627621211 0.2056501344 0
-1.64316616 -2.402822536 0.7315847094 -0.522676155 -0.8201557771 0.2327104174 0
-1.795589859 -2.268391545 0.7994481123 -0.5787001964 -0.7737703382 0.2576539276 0
-1.938872071 -2.122411601 0.8632414633 -0.6300545119 -0.7241137838 0.280518342 0
-2.072278074 -1.965612915 0.9226376428 -0.678181835 -0.6699985131 0.3019460069 0
-2.19510515 -1.79878001 0.97732378 -0.7212040073 -0.6138070646 0.3211007121 0
-2.306746791 -1.622778128 1.027029841 -0.7609527338 -0.5533234695 0.3387979854 0
-2.406668938 -1.43852892 1.071518047 -0.7962252338 -0.4902585913 0.3545023141 0
-2.494245582 -1.246900721 1.110509682 -0.8268496387 -0.4251995923 0.3681371778 0
-2.569169489 -1.048950386 1.143867954 -0.8531470421 -0.3575716618 0.3798455361 0
-2.631008249 -0.8456544736 1.171400344 -0.8748025592 -0.2881322765 0.3894871933 0
-2.679430794 -0.6380435772 1.192959449 -0.8917069642 -0.2173452451 0.3970135193 0
-2.714172021 -0.4271771164 1.208427241 -0.9036423382 -0.1468438459 0.4023274904 0
-2.735126604 -0.2141371265 1.217756822 -0.9110437931 -0.07395489698 0.4056228302 0
-2.742085045 0 1.220854919 -0.9135454577 0 0.406736643 0
-2.735126604 0.2141371265 1.217756822 -0.9110437931 0.07395489698 0.4056228302 0
-2.714172021 0.4271771164 1.208427241 -0.9036423382 0.1468438459 0.4023274904 0
-2.679430794 0.6380435772 1.192959449 -0.8917069642 0.2173452451 0.3970135193 0
-2.631008249 0.8456544736 1.171400344 -0.8748025592 0.2881322765 0.3894871933 0
-2.569169489 1.048950386 1.143867954 -0.8531470421 0.3575716618 0.3798455361 0
-2.494245582 1.246900721 1.110509682 -0.8268496387 0.4251995923 0.3681371778 0
-2.406668938 1.43852892 1.071518047 -0.7962252338 0.4902585913 0.3545023141 0
-2.306746791 1.622778128 1.027029841 -0.7609527338 0.5533234695 0.3387979854 0
-2.19510515 1.79878001 0.97732378 -0.7212040073 0.6138070646 0.3211007121 0
-2.072278074 1.965612915 0.9226376428 -0.678181835 0.6699985131 0.3019460069 0
-1.938872071 2.122411601 0.8632414633 -0.6300545119 0.7241137838 0.280518342 0
-1.795589859 2.268391545 0.7994481123 -0.5787001964 0.7737703382 0.2576539276 0
-1.64316616 2.402822536 0.7315847094 -0.522676155 0.8201557771 0.2327104174 0
-1.482348579 2.524972262 0.6599841088 -0.4618977643 0.8627621211 0.2056501344 0
-1.313959738 2.634237763 0.5850125664 -0.3867022435 0.9059903671 0.1721709315 0
-1.138863096 2.729953222 0.5070545191 -0.3203123192 0.9365157602 0.1426122328 0
-0.9580397895 2.811882466 0.426546796 -0.2645107578 0.9571649856 0.117767777 0
-0.7723690856 2.87956709 0.3438808725 0.216580966 -0.9714907692 -0.09642805874 0
-0.5827621069 2.932566105 0.2594624067 0.1726987847 -0.9819689343 -0.07689045287 0
-0.3901604381 2.970467416 0.1737106189 0.1256192378 -0.990500743 -0.05592928807 0
-0.1955622204 2.99305491 0.0870699103 0.06775225283 -0.997246053 -0.03016524646 0
-1.6785784e-16 3.000556956 7.324012402e-17 7.580606065e-17 -1 1.387778781e-17 0
-1.726608853e-16 -3.000556956 6.235405491e-17 7.569213472e-17 1 -2.775557562e-17 0
-0.2011595306 -2.99305491 0.07321608148 0.06969143297 0.997246053 -0.02536560719 0
-0.4013274671 -2.970467416 0.1460712523 0.1292146655 0.990500743 -0.0470302921 0
-0.5994417103 -2.932566105 0.2181789397 0.177641706 0.9819689343 -0.06465629335 0
-0.7944755504 -2.87956709 0.2891654522 0.222779867 0.9714907692 -0.08108524038 0
-0.9854604532 -2.811882466 0.358678272 -0.2720814877 -0.9571649856 0.09902956284 0
-1.171459218 -2.729953222 0.4263762861 -0.3294801812 -0.9365157602 0.1199209787 0
-1.351567411 -2.634237763 0.4919303073 -0.3977702932 -0.9059903671 0.1447765468 0
-1.524775816 -2.524972262 0.554973011 -0.4751180328 -0.862762121 0.1729288217 0
-1.69019626 -2.402822536 0.6151811287 -0.5376360003 -0.820155777 0.195683501 0
-1.846982574 -2.268391545 0.67224668 -0.5952635411 -0.7737703383 0.2166582105 0
-1.994365757 -2.122411601 0.7258897717 -0.6480877011 -0.7241137838 0.2358846324 0
-2.131590058 -1.965612915 0.7758353326 -0.6975925069 -0.669998513 0.2539029082 0
-2.257932645 -1.79878001 0.8218202738 -0.741846044 -0.6138070646 0.2700098785 0
-2.372769652 -1.622778128 0.8636175261 -0.782732444 -0.5533234696 0.2848913111 0
-2.475551734 -1.43852892 0.9010271443 -0.8190145005 -0.4902585914 0.2980968997 0
-2.565634964 -1.246900721 0.933814759 -0.850515426 -0.4251995922 0.3095622989 0
-2.642703316 -1.048950386 0.9618653449 -0.8775655039 -0.3575716618 0.3194077221 0
-2.706312003 -0.8456544735 0.9850170137 -0.8998408372 -0.2881322764 0.3275152804 0
-2.75612048 -0.6380435773 1.003145816 -0.9172290739 -0.2173452451 0.3338440809 0
-2.791856058 -0.4271771165 1.016152503 -0.9295060579 -0.1468438459 0.3383125377 0
-2.813410394 -0.2141371266 1.023997641 -0.9371193544 -0.07395489699 0.3410835511 0
-2.820567998 0 1.026602795 -0.9396926208 0 0.3420201434 0
-2.813410394 0.2141371266 1.023997641 -0.9371193544 0.07395489699 0.3410835511 0
-2.791856058 0.4271771165 1.016152503 -0.9295060579 0.1468438459 0.3383125377 0
-2.75612048 0.6380435773 1.003145816 -0.9172290739 0.2173452451 0.3338440809 0
-2.706312003 0.8456544735 0.9850170137 -0.8998408372 0.2881322764 0.3275152804 0
-2.642703316 1.048950386 0.9618653449 -0.8775655039 0.3575716618 0.3194077221 0
-2.565634964 1.246900721 0.933814759 -0.850515426 0.4251995922 0.3095622989 0
-2.475551734 1.43852892 0.9010271443 -0.8190145005 0.4902585914 0.2980968997 0
-2.372769652 1.622778128 0.8636175261 -0.782732444 0.5533234696 0.2848913111 0
-2.257932645 1.79878001 0.8218202738 -0.741846044 0.6138070646 0.2700098785 0
-2.131590058 1.965612915 0.7758353326 -0.6975925069 0.669998513 0.2539029082 0
-1.994365757 2.122411601 0.7258897717 -0.6480877011 0.7241137838 0.2358846324 0
-1.846982574 2.268391545 0.67224668 -0.5952635411 0.7737703383 0.2166582105 0
-1.69019626 2.402822536 0.6151811287 -0.5376360003 0.820155777 0.195683501 0
-1.524775816 2.524972262 0.554973011 -0.4751180328 0.862762121 0.1729288217 0
-1.351567411 2.634237763 0.4919303073 -0.3977702932 0.9059903671 0.1447765468 0
-1.171459218 2.729953222 0.4263762861 -0.3294801812 0.9365157602 0.1199209787 0
-0.9854604532 2.811882466 0.358678272 -0.2720814877 0.9571649856 0.09902956284 0
-0.7944755504 2.87956709 0.2891654522 0.222779867 -0.9714907692 -0.08108524038 0
-0.5994417103 2.932566105 0.2181789397 0.177641706 -0.9819689343 -0.06465629335 0
-0.4013274671 2.970467416 0.1460712523 0.1292146655 -0.990500743 -0.0470302921 0
-0.2011595306 2.99305491 0.07321608148 0.06969143297 -0.997246053 -0.02536560719 0
-1.726609509e-16 3.000556956 6.137508389e-17 7.580394307e-17 -1 -2.775557562e-17 0
-1.766213206e-16 -3.000556956 5.063569327e-17 7.257124182e-17 1 -3.469446952e-18 0
-0.2057768118 -2.99305491 0.05900555127 0.07129108345 0.997246053 -0.02044238923 0
-0.410539269 -2.970467416 0.117720241 0.1321805724 0.990500743 -0.03790216922 0
-0.6132008939 -2.932566105 0.1758325269 0.1817191748 0.9819689343 -0.05210713488 0
-0.8127114102 -2.87956709 0.2330412468 0.2278934069 0.9714907692 -0.06534738285 0
-1.008080053 -2.811882466 0.2890623036 0.278326664 0.9571649856 -0.07980888665 0
-1.198348109 -2.729953222 0.3436207907 0.3370428486 0.9365157602 -0.09664548165 0
-1.382590384 -2.634237763 0.3964514131 -0.4069004461 -0.9059903672 0.1166768254 0
-1.559774499 -2.524972262 0.4472581405 -0.4860235739 -0.8627621211 0.1393650172 0
-1.728991893 -2.402822536 0.4957804474 -0.549976537 -0.820155777 0.1577032343 0
-1.889376975 -2.268391545 0.5417701295 -0.6089268218 -0.7737703383 0.1746069565 0
-2.040143093 -2.122411601 0.5850016182 -0.6629634722 -0.7241137838 0.1901017166 0
-2.180517149 -1.965612915 0.6252532309 -0.7136045782 -0.6699985131 0.2046228201 0
-2.309759719 -1.79878001 0.6623129415 -0.7588738813 -0.6138070646 0.2176035839 0
-2.427232618 -1.622778128 0.6959977533 -0.8006987604 -0.5533234696 0.229596675 0
-2.53237389 -1.43852892 0.726146528 -0.8378136108 -0.4902585914 0.2402391871 0
-2.624524831 -1.246900721 0.7525703851 -0.8700375876 -0.4251995922 0.2494792637 0
-2.703362158 -1.048950386 0.7751766249 -0.8977085548 -0.3575716619 0.257413786 0
-2.768430876 -0.8456544736 0.7938347796 -0.9204951812 -0.2881322764 0.263947746 0
-2.819382624 -0.6380435772 0.8084449579 -0.9382825359 -0.2173452451 0.2690481878 0
-2.855938452 -0.4271771163 0.8189271731 -0.9508413176 -0.1468438459 0.2726493605 0
-2.877987533 -0.2141371266 0.8252496453 -0.9586293645 -0.07395489698 0.274882547 0
-2.885309427 3.684676002e-19 0.8273491646 -0.9612616959 -5.551115123e-17 0.2756373559 0
-2.877987533 0.2141371266 0.8252496453 -0.9586293645 0.07395489698 0.274882547 0
-2.855938452 0.4271771163 0.8189271731 -0.9508413176 0.1468438459 0.2726493605 0
-2.819382624 0.6380435772 0.8084449579 -0.9382825359 0.2173452451 0.2690481878 0
-2.768430876 0.8456544736 0.7938347796 -0.9204951812 0.2881322764 0.263947746 0
-2.703362158 1.048950386 0.7751766249 -0.8977085548 0.3575716619 0.257413786 0
-2.624524831 1.246900721 0.7525703851 -0.8700375876 0.4251995922 0.2494792637 0
-2.53237389 1.43852892 0.726146528 -0.8378136108 0.4902585914 0.2402391871 0
-2.427232618 1.622778128 0.6959977533 -0.8006987604 0.5533234696 0.229596675 0
-2.309759719 1.79878001 0.6623129415 -0.7588738813 0.6138070646 0.2176035839 0
-2.180517149 1.965612915 0.6252532309 -0.7136045782 0.6699985131 0.2046228201 0
-2.040143093 2.122411601 0.5850016182 -0.6629634722 0.7241137838 0.1901017166 0
-1.889376975 2.268391545 0.5417701295 -0.6089268218 0.7737703383 0.1746069565 0
-1.728991893 2.402822536 0.4957804474 -0.549976537 0.820155777 0.1577032343 0
-1.559774499 2.524972262 0.4472581405 -0.4860235739 0.8627621211 0.1393650172 0
-1.382590384 2.634237763 0.3964514131 -0.4069004461 0.9059903672 0.1166768254 0
-1.198348109 2.729953222 0.3436207907 0.3370428486 -0.9365157602 -0.09664548165 0
-1.008080053 2.811882466 0.2890623036 0.278326664 -0.9571649856 -0.07980888665 0
-0.8127114102 2.87956709 0.2330412468 0.2278934069 -0.9714907692 -0.06534738285 0
-0.6132008939 2.932566105 0.1758325269 0.1817191748 -0.9819689343 -0.05210713488 0
-0.410539269 2.970467416 0.117720241 0.1321805724 -0.990500743 -0.03790216922 0
-0.2057768118 2.99305491 0.05900555127 0.07129108345 -0.997246053 -0.02044238923 0
-1.766213127e-16 3.000556956 5.063569326e-17 7.257166534e-17 -1 -3.469446952e-18 0
-1.797222336e-16 -3.000556956 3.867837914e-17 7.078781395e-17 1 6.938893904e-18 0
-0.209391569 -2.99305491 0.04450755194 0.07254341095 0.997246053 -0.015419578 0
-0.4177509649 -2.970467416 0.08879570873 0.1345025089 0.990500743 -0.02858939082 0
-0.6239726243 -2.932566105 0.1326294756 0.184911326 0.9819689343 -0.03930411567 0
-0.8269878217 -2.87956709 0.175781688 0.231896673 0.9714907692 -0.04929115948 0
-1.025788387 -2.811882466 0.2180380526 0.2832158606 0.9571649857 -0.06019938958 0
-1.219398768 -2.729953222 0.2591912093 0.3429634772 0.9365157602 -0.07289913748 0
-1.406877517 -2.634237763 0.2990410476 0.4140482211 0.9059903671 -0.08800866626 0
-1.587174117 -2.524972262 0.3373642732 -0.4945612571 -0.8627621211 0.1051222404 0
-1.759364051 -2.402822536 0.3739643735 -0.5596376434 -0.820155777 0.1189546533 0
-1.922566521 -2.268391545 0.4086541293 -0.6196234722 -0.7737703383 0.1317050348 0
-2.075981057 -2.122411601 0.4412633956 -0.6746093518 -0.7241137839 0.1433926444 0
-2.218820979 -1.965612915 0.4716249582 -0.7261400396 -0.6699985131 0.1543458302 0
-2.350333875 -1.79878001 0.4995788874 -0.7722045613 -0.6138070647 0.1641371465 0
-2.46987035 -1.622778128 0.5249871495 -0.8147641528 -0.5533234696 0.173183467 0
-2.576858576 -1.43852892 0.5477281987 -0.8525309776 -0.4902585914 0.1812110534 0
-2.670628277 -1.246900721 0.5676595641 -0.8853210134 -0.4251995923 0.1881807907 0
-2.750850492 -1.048950386 0.5847113221 -0.9134780599 -0.3575716618 0.1941657557 0
-2.817062233 -0.8456544736 0.5987850622 -0.9366649652 -0.2881322765 0.1990942846 0
-2.868909019 -0.6380435772 0.6098054366 -0.9547647796 -0.2173452451 0.2029415188 0
-2.906107002 -0.4271771163 0.6177121121 -0.9675441739 -0.1468438458 0.2056578629 0
-2.928543405 -0.2141371266 0.6224811169 -0.9754690288 -0.07395489697 0.2073423429 0
-2.935993918 0 0.6240647725 -0.9781476007 0 0.2079116909 0
-2.928543405 0.2141371266 0.6224811169 -0.9754690288 0.07395489697 0.2073423429 0
-2.906107002 0.4271771163 0.6177121121 -0.9675441739 0.1468438458 0.2056578629 0
-2.868909019 0.6380435772 0.6098054366 -0.9547647796 0.2173452451 0.2029415188 0
-2.817062233 0.8456544736 0.5987850622 -0.9366649652 0.2881322765 0.1990942846 0
-2.750850492 1.048950386 0.5847113221 -0.9134780599 0.3575716618 0.1941657557 0
-2.670628277 1.246900721 0.5676595641 -0.8853210134 0.4251995923 0.1881807907 0
-2.576858576 1.43852892 0.5477281987 -0.8525309776 0.4902585914 0.1812110534 0
-2.46987035 1.622778128 0.5249871495 -0.8147641528 0.5533234696 0.173183467 0
-2.350333875 1.79878001 0.4995788874 -0.7722045613 0.6138070647 0.1641371465 0
-2.218820979 1.965612915 0.4716249582 -0.7261400396 0.6699985131 0.1543458302 0
-2.075981057 2.122411601 0.4412633956 -0.6746093518 0.7241137839 0.1433926444 0
-1.922566521 2.268391545 0.4086541293 -0.6196234722 0.7737703383 0.1317050348 0
-1.759364051 2.402822536 0.3739643735 -0.5596376434 0.820155777 0.1189546533 0
-1.587174117 2.524972262 0.3373642732 -0.4945612571 0.8627621211 0.1051222404 0
-1.406877517 2.634237763 0.2990410476 0.4140482211 -0.9059903671 -0.08800866626 0
-1.219398768 2.729953222 0.2591912093 0.3429634772 -0.9365157602 -0.07289913748 0
-1.025788387 2.811882466 0.2180380526 0.2832158606 -0.9571649857 -0.06019938958 0
-0.8269878217 2.87956709 0.175781688 0.231896673 -0.9714907692 -0.04929115948 0
-0.6239726243 2.932566105 0.1326294756 0.184911326 -0.9819689343 -0.03930411567 0
-0.4177509649 2.970467416 0.08879570873 0.1345025089 -0.990500743 -0.02858939082 0
-0.209391569 2.99305491 0.04450755194 0.07254341095 -0.997246053 -0.015419578 0
-1.797222387e-16 3.000556956 3.818889365e-17 7.078781395e-17 -1 6.938893904e-18 0
-1.81948373e-16 -3.000556956 2.559627669e-17 7.022961924e-17 1 0 0
-0.2119861915 -2.99305491 0.0297927163 0.07344231422 0.997246053 -0.01032164414 0
-0.4229274201 -2.970467416 0.05943857264 0.1361691626 0.990500743 -0.01913732777 0
-0.6317044229 -2.932566105 0.08878026688 0.1872026078 0.9819689343 -0.02630961076 0
-0.8372352316 -2.87956709 0.1176657383 0.2347701618 0.9714907692 -0.0329947945 0
-1.038499184 -2.811882465 0.1459515421 0.2867252583 0.9571649856 -0.04029660712 0
-1.234508638 -2.729953222 0.1734988744 0.3472132221 0.9365157602 -0.04879763605 0
-1.424310483 -2.634237763 0.200173784 0.4191787947 0.9059903671 -0.05891173769 0
-1.606841184 -2.524972262 0.2258268011 0.5006894877 0.862762121 -0.07036731852 0
-1.781164765 -2.402822536 0.2503263829 0.5665722513 0.8201557771 -0.07962653716 0
-1.946389517 -2.268391545 0.2735472074 0.6273013794 0.7737703383 -0.0881614595 0
-2.10170505 -2.122411601 0.295375382 0.6829686027 0.7241137838 -0.09598497752 0
-2.246314937 -1.965612915 0.3156989762 -0.7351378198 -0.6699985132 0.1033168829 0
-2.379457442 -1.79878001 0.334410935 -0.7817731384 -0.6138070646 0.1098710494 0
-2.500475122 -1.622778128 0.3514188609 -0.8248600963 -0.5533234696 0.1159265265 0
-2.608789066 -1.43852892 0.3666413929 -0.863094899 -0.4902585914 0.1213000776 0
-2.70372069 -1.246900721 0.3799831626 -0.8962912443 -0.4251995923 0.1259655197 0
-2.784936958 -1.048950386 0.3913973647 -0.9247971917 -0.3575716619 0.1299717693 0
-2.851969145 -0.8456544735 0.4008181242 -0.9482714117 -0.2881322764 0.1332708558 0
-2.904458378 -0.6380435772 0.4081950047 -0.9665955053 -0.2173452451 0.1358461392 0
-2.94211729 -0.4271771164 0.4134876197 -0.9795332522 -0.1468438459 0.137664421 0
-2.964831708 -0.2141371265 0.4166799229 -0.9875563059 -0.07395489696 0.1387919876 0
-2.972374543 5.985602812e-19 0.4177399993 -0.9902680687 2.775557562e-17 0.139173101 0
-2.964831708 0.2141371265 0.4166799229 -0.9875563059 0.07395489696 0.1387919876 0
-2.94211729 0.4271771164 0.4134876197 -0.9795332522 0.1468438459 0.137664421 0
-2.904458378 0.6380435772 0.4081950047 -0.9665955053 0.2173452451 0.1358461392 0
-2.851969145 0.8456544735 0.4008181242 -0.9482714117 0.2881322764 0.1332708558 0
-2.784936958 1.048950386 0.3913973647 -0.9247971917 0.3575716619 0.1299717693 0
-2.70372069 1.246900721 0.3799831626 -0.8962912443 0.4251995923 0.1259655197 0
-2.608789066 1.43852892 0.3666413929 -0.863094899 0.4902585914 0.1213000776 0
-2.500475122 1.622778128 0.3514188609 -0.8248600963 0.5533234696 0.1159265265 0
-2.379457442 1.79878001 0.334410935 -0.7817731384 0.6138070646 0.1098710494 0
-2.246314937 1.965612915 0.3156989762 -0.7351378198 0.6699985132 0.1033168829 0
-2.10170505 2.122411601 0.295375382 0.6829686027 -0.7241137838 -0.09598497752 0
-1.946389517 2.268391545 0.2735472074 0.6273013794 -0.7737703383 -0.0881614595 0
-1.781164765 2.402822536 0.2503263829 0.5665722513 -0.8201557771 -0.07962653716 0
-1.606841184 2.524972262 0.2258268011 0.5006894877 -0.862762121 -0.07036731852 0
-1.424310483 2.634237763 0.200173784 0.4191787947 -0.9059903671 -0.05891173769 0
-1.234508638 2.729953222 0.1734988744 0.3472132221 -0.9365157602 -0.04879763605 0
-1.038499184 2.811882465 0.1459515421 0.2867252583 -0.9571649856 -0.04029660712 0
-0.8372352316 2.87956709 0.1176657383 0.2347701618 -0.9714907692 -0.0329947945 0
-0.6317044229 2.932566105 0.08878026688 0.1872026078 -0.9819689343 -0.02630961076 0
-0.4229274201 2.970467416 0.05943857264 0.1361691626 -0.990500743 -0.01913732777 0
-0.2119861915 2.99305491 0.0297927163 0.07344231422 -0.997246053 -0.01032164414 0
-1.819484133e-16 3.000556956 2.556181942e-17 7.023046627e-17 -1 6.938893904e-18 0
-1.832887241e-16 -3.000556956 1.281453941e-17 7.034142759e-17 1 -8.67361738e-19 0
-0.2135480386 -2.99305491 0.01493273354 0.07398341394 0.997246053 -0.005173424273 0
-0.4260434153 -2.970467416 0.02979185779 0.1371724139 0.990500743 -0.009592029589 0
-0.6363586211 -2.932566105 0.04449852963 0.1885818573 0.9819689343 -0.01318692807 0
-0.8434037156 -2.87956709 0.05897653301 0.236499874 0.9714907692 -0.01653768221 0
-1.046150517 -2.811882466 0.07315397047 0.2888377591 0.9571649856 -0.02019750367 0
-1.243604107 -2.729953222 0.08696127051 0.3497713792 0.9365157602 -0.02445839746 0
-1.434804351 -2.634237763 0.1003312941 0.4222671712 0.9059903671 -0.02952779708 0
-1.61867988 -2.524972262 0.1131891236 0.5043784092 0.862762121 -0.03526957418 0
-1.794287823 -2.402822536 0.1254688271 0.5707465763 0.820155777 -0.03991048851 0
-1.960729898 -2.268391545 0.1371075909 0.6319231373 0.7737703383 -0.04418837041 0
-2.117189747 -2.122411601 0.1480483292 0.688000499 0.7241137838 -0.04810968152 0
-2.262865074 -1.965612915 0.1582349404 0.7405540824 0.6699985131 -0.05178458608 0
-2.396988531 -1.79878001 0.1676137663 0.7875329953 0.6138070646 -0.0550696717 0
-2.518897831 -1.622778128 0.1761384949 0.8309374043 0.5533234695 -0.05810480362 0
-2.628009797 -1.43852892 0.1837683469 0.8694539089 0.4902585914 -0.06079814002 0
-2.723640848 -1.246900721 0.1904555214 0.9028948344 0.4251995922 -0.06313655732 0
-2.805455492 -1.048950386 0.1961765586 0.9316108046 0.3575716618 -0.06514457358 0
-2.872981551 -0.8456544735 0.2008984406 0.9552579752 0.2881322764 -0.06679814483 0
-2.925857507 -0.6380435773 0.2045958877 0.9737170749 0.2173452451 -0.06808893082 0
-2.963793878 -0.4271771164 0.2072486572 0.986750143 0.1468438458 -0.06900029173 0
-2.986675649 -0.2141371266 0.2088487064 0.994832308 0.07395489697 -0.06956545175 0
-2.994274057 0 0.2093800388 0.9975640503 -0 -0.06975647377 0
-2.986675649 0.2141371266 0.2088487064 0.994832308 -0.07395489697 -0.06956545175 0
-2.963793878 0.4271771164 0.2072486572 0.986750143 -0.1468438458 -0.06900029173 0
-2.925857507 0.6380435773 0.2045958877 0.9737170749 -0.2173452451 -0.06808893082 0
-2.872981551 0.8456544735 0.2008984406 0.9552579752 -0.2881322764 -0.06679814483 0
-2.805455492 1.048950386 0.1961765586 0.9316108046 -0.3575716618 -0.06514457358 0
-2.723640848 1.246900721 0.1904555214 0.9028948344 -0.4251995922 -0.06313655732 0
-2.628009797 1.43852892 0.1837683469 0.8694539089 -0.4902585914 -0.06079814002 0
-2.518897831 1.622778128 0.1761384949 0.8309374043 -0.5533234695 -0.05810480362 0
-2.396988531 1.79878001 0.1676137663 0.7875329953 -0.6138070646 -0.0550696717 0
-2.262865074 1.965612915 0.1582349404 0.7405540824 -0.6699985131 -0.05178458608 0
-2.117189747 2.122411601 0.1480483292 0.688000499 -0.7241137838 -0.04810968152 0
-1.960729898 2.268391545 0.1371075909 0.6319231373 -0.7737703383 -0.04418837041 0
-1.794287823 2.402822536 0.1254688271 0.5707465763 -0.820155777 -0.03991048851 0
-1.61867988 2.524972262 0.1131891236 0.5043784092 -0.862762121 -0.03526957418 0
-1.434804351 2.634237763 0.1003312941 0.4222671712 -0.9059903671 -0.02952779708 0
-1.243604107 2.729953222 0.08696127051 0.3497713792 -0.9365157602 -0.02445839746 0
-1.046150517 2.811882466 0.07315397047 0.2888377591 -0.9571649856 -0.02019750367 0
-0.8434037156 2.87956709 0.05897653301 0.236499874 -0.9714907692 -0.01653768221 0
-0.6363586211 2.932566105 0.04449852963 0.1885818573 -0.9819689343 -0.01318692807 0
-0.4260434153 2.970467416 0.02979185779 0.1371724139 -0.990500743 -0.009592029589 0
-0.2135480386 2.99305491 0.01493273354 0.07398341394 -0.997246053 -0.005173424273 0
-1.832887447e-16 3.000556956 1.305879936e-17 7.034227462e-17 -1 -0 0
-1.837363352e-16 -3.000556956 -4.831177848e-22 7.056462077e-17 1 8.67361738e-19 0
-0.2140695012 -2.99305491 2.620979245e-17 0.0741640739 0.997246053 -2.879891163e-19 0
-0.4270837699 -2.970467416 5.228753791e-17 0.1375073749 0.990500743 -1.890531974e-18 0
-0.637912544 -2.932566105 7.811862144e-17 0.189042355 0.9819689343 -2.04166319e-17 0
-0.8454632215 -2.87956709 1.035198409e-16 0.2370773826 0.9714907692 -1.158704489e-17 0
-1.04870511 -2.811882466 1.284337064e-16 0.2895430716 0.9571649856 -3.950758531e-17 0
-1.246640861 -2.729953222 1.526595975e-16 0.3506254852 0.9365157602 -3.41904043e-17 0
-1.438307997 -2.634237763 1.76133924e-16 0.4232983045 0.9059903672 -4.579977954e-17 0
-1.622632531 -2.524972262 1.987018159e-16 0.5056100497 0.8627621211 -5.240806071e-17 0
-1.798669291 -2.402822536 2.20172552e-16 0.5721402813 0.820155777 -1.032483528e-18 0
-1.965517801 -2.268391545 2.405891487e-16 0.6334662293 0.7737703383 1.883490165e-18 0
-2.122359709 -2.122411601 2.598588685e-16 0.6896805262 0.7241137837 -4.781054712e-17 0
-2.26839076 -1.965612915 2.776837475e-16 0.7423624401 0.6699985131 -1.680880007e-17 0
-2.402841733 -1.79878001 2.941805869e-16 0.7894560706 0.6138070646 -4.310626768e-17 0
-2.525048723 -1.622778128 3.091617159e-16 0.8329664687 0.5533234697 -5.831623575e-17 0
-2.63442713 -1.43852892 3.225447098e-16 0.8715770268 0.4902585914 -5.685299223e-17 0
-2.730291701 -1.246900721 3.34322362e-16 0.9050996115 0.4251995923 -8.364705229e-17 0
-2.812306128 -1.048950386 3.44355315e-16 0.9338857032 0.3575716619 -8.048889282e-17 0
-2.879997079 -0.8456544735 3.526517699e-16 0.9575906178 0.2881322764 -8.816118434e-17 0
-2.933002153 -0.6380435773 3.591500858e-16 0.9760947927 0.2173452451 -9.510655629e-17 0
-2.971031161 -0.4271771163 3.637985242e-16 0.9891596863 0.1468438458 -9.092512971e-17 0
-2.993968807 -0.2141371266 3.666107696e-16 0.9972615872 0.07395489696 -9.45071815e-17 0
-3.001585769 3.375259385e-22 3.675454359e-16 1 -2.128468466e-19 -9.547180214e-17 0
-2.993968807 0.2141371266 3.666107696e-16 0.9972615872 -0.07395489696 -9.45071815e-17 0
-2.971031161 0.4271771163 3.637985242e-16 0.9891596863 -0.1468438458 -9.092512971e-17 0
-2.933002153 0.6380435773 3.591500858e-16 0.9760947927 -0.2173452451 -9.510655629e-17 0
-2.879997079 0.8456544735 3.526517699e-16 0.9575906178 -0.2881322764 -8.816118434e-17 0
-2.812306128 1.048950386 3.44355315e-16 0.9338857032 -0.3575716619 -8.048889282e-17 0
-2.730291701 1.246900721 3.34322362e-16 0.9050996115 -0.4251995923 -8.364705229e-17 0
-2.63442713 1.43852892 3.225447098e-16 0.8715770268 -0.4902585914 -5.685299223e-17 0
-2.525048723 1.622778128 3.091617159e-16 0.8329664687 -0.5533234697 -5.831623575e-17 0
-2.402841733 1.79878001 2.941805869e-16 0.7894560706 -0.6138070646 -4.310626768e-17 0
-2.26839076 1.965612915 2.77684394e-16 0.7423624401 -0.6699985131 -1.722902008e-17 0
-2.122359709 2.122411601 2.598601326e-16 0.6896805262 -0.7241137837 -4.864932865e-17 0
-1.965517801 2.268391545 2.405891487e-16 0.6334662293 -0.7737703383 1.883490165e-18 0
-1.798669291 2.402822536 2.20172552e-16 0.5721402813 -0.820155777 -1.032483528e-18 0
-1.622632531 2.524972262 1.987018159e-16 0.5056100497 -0.8627621211 -5.240806071e-17 0
-1.438307997 2.634237763 1.761331122e-16 0.4232983045 -0.9059903672 -4.51872277e-17 0
-1.246640861 2.729953222 1.526595195e-16 0.3506254852 -0.9365157602 -3.412136118e-17 0
-1.04870511 2.811882466 1.284335981e-16 0.2895430716 -0.9571649856 -3.940728712e-17 0
-0.8454632215 2.87956709 1.035201016e-16 0.2370773826 -0.9714907692 -1.181982048e-17 0
-0.637912544 2.932566105 7.811896853e-17 0.189042355 -0.9819689343 -2.071946139e-17 0
-0.4270837699 2.970467416 5.228743411e-17 0.1375073749 -0.990500743 -1.788037535e-18 0
-0.2140695012 2.99305491 2.620994133e-17 0.0741640739 -0.997246053 -5.005351016e-19 0
-1.837362105e-16 3.000556956 2.370136844e-19 7.055784451e-17 -1 1.387778781e-17 0
-1.832887162e-16 -3.000556956 -1.354441976e-17 7.034100407e-17 1 -6.938893904e-18 0
-0.2135480386 -2.99305491 -0.01493273354 0.07398341394 0.997246053 0.005173424273 0
-0.4260434153 -2.970467416 -0.02979185779 0.1371724139 0.990500743 0.009592029589 0
-0.6363586211 -2.932566105 -0.04449852963 0.1885818573 0.9819689343 0.01318692807 0
-0.8434037156 -2.87956709 -0.05897653301 0.236499874 0.9714907692 0.01653768221 0
-1.046150517 -2.811882466 -0.07315397047 0.2888377591 0.9571649856 0.02019750367 0
-1.243604107 -2.729953222 -0.08696127051 0.3497713792 0.9365157602 0.02445839746 0
-1.434804351 -2.634237763 -0.1003312941 0.4222671712 0.9059903671 0.02952779708 0
-1.61867988 -2.524972262 -0.1131891236 0.5043784092 0.862762121 0.03526957418 0
-1.794287823 -2.402822536 -0.1254688271 0.5707465763 0.820155777 0.03991048851 0
-1.960729898 -2.268391545 -0.1371075909 0.6319231373 0.7737703383 0.04418837041 0
-2.117189747 -2.122411601 -0.1480483292 0.688000499 0.7241137838 0.04810968152 0
-2.262865074 -1.965612915 -0.1582349404 0.7405540824 0.6699985131 0.05178458608 0
-2.396988531 -1.79878001 -0.1676137663 0.7875329953 0.6138070646 0.0550696717 0
-2.518897831 -1.622778128 -0.1761384949 0.8309374043 0.5533234695 0.05810480362 0
-2.628009797 -1.43852892 -0.1837683469 0.8694539089 0.4902585914 0.06079814002 0
-2.723640848 -1.246900721 -0.1904555214 0.9028948344 0.4251995922 0.06313655732 0
-2.805455492 -1.048950386 -0.1961765586 0.9316108046 0.3575716618 0.06514457358 0
-2.872981551 -0.8456544735 -0.2008984406 0.9552579752 0.2881322764 0.06679814483 0
-2.925857507 -0.6380435773 -0.2045958877 0.9737170749 0.2173452451 0.06808893082 0
-2.963793878 -0.4271771164 -0.2072486572 0.986750143 0.1468438458 0.06900029173 0
-2.986675649 -0.2141371266 -0.2088487064 0.994832308 0.07395489697 0.06956545175 0
-2.994274057 0 -0.2093800388 0.9975640503 -0 0.06975647377 0
-2.986675649 0.2141371266 -0.2088487064 0.994832308 -0.07395489697 0.06956545175 0
-2.963793878 0.4271771164 -0.2072486572 0.986750143 -0.1468438458 0.06900029173 0
-2.925857507 0.6380435773 -0.2045958877 0.9737170749 -0.2173452451 0.06808893082 0
-2.872981551 0.8456544735 -0.2008984406 0.9552579752 -0.2881322764 0.06679814483 0
-2.805455492 1.048950386 -0.1961765586 0.9316108046 -0.3575716618 0.06514457358 0
-2.723640848 1.246900721 -0.1904555214 0.9028948344 -0.4251995922 0.06313655732 0
-2.628009797 1.43852892 -0.1837683469 0.8694539089 -0.4902585914 0.06079814002 0
-2.518897831 1.622778128 -0.1761384949 0.8309374043 -0.5533234695 0.05810480362 0
-2.396988531 1.79878001 -0.1676137663 0.7875329953 -0.6138070646 0.0550696717 0
-2.262865074 1.965612915 -0.1582349404 0.7405540824 -0.6699985131 0.05178458608 0
-2.117189747 2.122411601 -0.1480483292 0.688000499 -0.7241137838 0.04810968152 0
-1.960729898 2.268391545 -0.1371075909 0.6319231373 -0.7737703383 0.04418837041 0
-1.794287823 2.402822536 -0.1254688271 0.5707465763 -0.820155777 0.03991048851 0
-1.61867988 2.524972262 -0.1131891236 0.5043784092 -0.862762121 0.03526957418 0
-1.434804351 2.634237763 -0.1003312941 0.4222671712 -0.9059903671 0.02952779708 0
-1.243604107 2.729953222 -0.08696127051 0.3497713792 -0.9365157602 0.02445839746 0
-1.046150517 2.811882466 -0.07315397047 0.2888377591 -0.9571649856 0.02019750367 0
-0.8434037156 2.87956709 -0.05897653301 0.236499874 -0.9714907692 0.01653768221 0
-0.6363586211 2.932566105 -0.04449852963 0.1885818573 -0.9819689343 0.01318692807 0
-0.4260434153 2.970467416 -0.02979185779 0.1371724139 -0.990500743 0.009592029589 0
-0.2135480386 2.99305491 -0.01493273354 0.07398341394 -0.997246053 0.005173424273 0
-1.832886984e-16 3.000556956 -1.281212388e-17 7.034100407e-17 -1 -3.469446952e-18 0
-1.819483989e-16 -3.000556956 -2.556568355e-17 7.023004276e-17 1 0 0
-0.2119861915 -2.99305491 -0.0297927163 0.07344231422 0.997246053 0.01032164414 0
-0.4229274201 -2.970467416 -0.05943857264 0.1361691626 0.990500743 0.01913732777 0
-0.6317044229 -2.932566105 -0.08878026688 0.1872026078 0.9819689343 0.02630961076 0
-0.8372352316 -2.87956709 -0.1176657383 0.2347701618 0.9714907692 0.0329947945 0
-1.038499184 -2.811882465 -0.1459515421 0.2867252583 0.9571649856 0.04029660712 0
-1.234508638 -2.729953222 -0.1734988744 0.3472132221 0.9365157602 0.04879763605 0
-1.424310483 -2.634237763 -0.200173784 0.4191787947 0.9059903671 0.05891173769 0
-1.606841184 -2.524972262 -0.2258268011 0.5006894877 0.862762121 0.07036731852 0
-1.781164765 -2.402822536 -0.2503263829 0.5665722513 0.8201557771 0.07962653716 0
-1.946389517 -2.268391545 -0.2735472074 0.6273013794 0.7737703383 0.0881614595 0
-2.10170505 -2.122411601 -0.295375382 0.6829686027 0.7241137838 0.09598497752 0
-2.246314937 -1.965612915 -0.3156989762 0.7351378198 0.6699985132 0.1033168829 0
-2.379457442 -1.79878001 -0.334410935 0.7817731384 0.6138070646 0.1098710494 0
-2.500475122 -1.622778128 -0.3514188609 0.8248600963 0.5533234696 0.1159265265 0
-2.608789066 -1.43852892 -0.3666413929 0.863094899 0.4902585914 0.1213000776 0
-2.70372069 -1.246900721 -0.3799831626 0.8962912443 0.4251995923 0.1259655197 0
-2.784936958 -1.048950386 -0.3913973647 0.9247971917 0.3575716619 0.1299717693 0
-2.851969145 -0.8456544735 -0.4008181242 0.9482714117 0.2881322764 0.1332708558 0
-2.904458378 -0.6380435772 -0.4081950047 0.9665955053 0.2173452451 0.1358461392 0
-2.94211729 -0.4271771164 -0.4134876197 0.9795332522 0.1468438459 0.137664421 0
-2.964831708 -0.2141371265 -0.4166799229 0.9875563059 0.07395489696 0.1387919876 0
-2.972374543 1.837609405e-18 -0.4177399993 0.9902680687 -2.775557562e-17 0.139173101 0
-2.964831708 0.2141371265 -0.4166799229 0.9875563059 -0.07395489696 0.1387919876 0
-2.94211729 0.4271771164 -0.4134876197 0.9795332522 -0.1468438459 0.137664421 0
-2.904458378 0.6380435772 -0.4081950047 0.9665955053 -0.2173452451 0.1358461392 0
-2.851969145 0.8456544735 -0.4008181242 0.9482714117 -0.2881322764 0.1332708558 0
-2.784936958 1.048950386 -0.3913973647 0.9247971917 -0.3575716619 0.1299717693 0
-2.70372069 1.246900721 -0.3799831626 0.8962912443 -0.4251995923 0.1259655197 0
-2.608789066 1.43852892 -0.3666413929 0.863094899 -0.4902585914 0.1213000776 0
-2.500475122 1.622778128 -0.3514188609 0.8248600963 -0.5533234696 0.1159265265 0
-2.379457442 1.79878001 -0.334410935 0.7817731384 -0.6138070646 0.1098710494 0
-2.246314937 1.965612915 -0.3156989762 0.7351378198 -0.6699985132 0.1033168829 0
-2.10170505 2.122411601 -0.295375382 0.6829686027 -0.7241137838 0.09598497752 0
-1.946389517 2.268391545 -0.2735472074 0.6273013794 -0.7737703383 0.0881614595 0
-1.781164765 2.402822536 -0.2503263829 0.5665722513 -0.8201557771 0.07962653716 0
-1.606841184 2.524972262 -0.2258268011 0.5006894877 -0.862762121 0.07036731852 0
-1.424310483 2.634237763 -0.200173784 0.4191787947 -0.9059903671 0.05891173769 0
-1.234508638 2.729953222 -0.1734988744 0.3472132221 -0.9365157602 0.04879763605 0
-1.038499184 2.811882465 -0.1459515421 0.2867252583 -0.9571649856 0.04029660712 0
-0.8372352316 2.87956709 -0.1176657383 0.2347701618 -0.9714907692 0.0329947945 0
-0.6317044229 2.932566105 -0.08878026688 0.1872026078 -0.9819689343 0.02630961076 0
-0.4229274201 2.970467416 -0.05943857264 0.1361691626 -0.990500743 0.01913732777 0
-0.2119861915 2.99305491 -0.0297927163 0.07344231422 -0.997246053 0.01032164414 0
-1.819484087e-16 3.000556956 -2.506460415e-17 7.022961924e-17 -1 -2.081668171e-17 0
-1.797222444e-16 -3.000556956 -3.855600733e-17 7.078781395e-17 1 -6.938893904e-18 0
-0.209391569 -2.99305491 -0.04450755194 0.07254341095 0.997246053 0.015419578 0
-0.4177509649 -2.970467416 -0.08879570873 0.1345025089 0.990500743 0.02858939082 0
-0.6239726243 -2.932566105 -0.1326294756 0.184911326 0.9819689343 0.03930411567 0
-0.8269878217 -2.87956709 -0.175781688 0.231896673 0.9714907692 0.04929115948 0
-1.025788387 -2.811882466 -0.2180380526 0.2832158606 0.9571649857 0.06019938958 0
-1.219398768 -2.729953222 -0.2591912093 0.3429634772 0.9365157602 0.07289913748 0
-1.406877517 -2.634237763 -0.2990410476 0.4140482211 0.9059903671 0.08800866626 0
-1.587174117 -2.524972262 -0.3373642732 0.4945612571 0.8627621211 0.1051222404 0
-1.759364051 -2.402822536 -0.3739643735 0.5596376434 0.820155777 0.1189546533 0
-1.922566521 -2.268391545 -0.4086541293 0.6196234722 0.7737703383 0.1317050348 0
-2.075981057 -2.122411601 -0.4412633956 0.6746093518 0.7241137839 0.1433926444 0
-2.218820979 -1.965612915 -0.4716249582 0.7261400396 0.6699985131 0.1543458302 0
-2.350333875 -1.79878001 -0.4995788874 0.7722045613 0.6138070647 0.1641371465 0
-2.46987035 -1.622778128 -0.5249871495 0.8147641528 0.5533234696 0.173183467 0
-2.576858576 -1.43852892 -0.5477281987 0.8525309776 0.4902585914 0.1812110534 0
-2.670628277 -1.246900721 -0.5676595641 0.8853210134 0.4251995923 0.1881807907 0
-2.750850492 -1.048950386 -0.5847113221 0.9134780599 0.3575716618 0.1941657557 0
-2.817062233 -0.8456544736 -0.5987850622 0.9366649652 0.2881322765 0.1990942846 0
-2.868909019 -0.6380435772 -0.6098054366 0.9547647796 0.2173452451 0.2029415188 0
-2.906107002 -0.4271771163 -0.6177121121 0.9675441739 0.1468438458 0.2056578629 0
-2.928543405 -0.2141371266 -0.6224811169 0.9754690288 0.07395489697 0.2073423429 0
-2.935993918 0 -0.6240647725 0.9781476007 -0 0.2079116909 0
-2.928543405 0.2141371266 -0.6224811169 0.9754690288 -0.07395489697 0.2073423429 0
-2.906107002 0.4271771163 -0.6177121121 0.9675441739 -0.1468438458 0.2056578629 0
-2.868909019 0.6380435772 -0.6098054366 0.9547647796 -0.2173452451 0.2029415188 0
-2.817062233 0.8456544736 -0.5987850622 0.9366649652 -0.2881322765 0.1990942846 0
-2.750850492 1.048950386 -0.5847113221 0.9134780599 -0.3575716618 0.1941657557 0
-2.670628277 1.246900721 -0.5676595641 0.8853210134 -0.4251995923 0.1881807907 0
-2.576858576 1.43852892 -0.5477281987 0.8525309776 -0.4902585914 0.1812110534 0
-2.46987035 1.622778128 -0.5249871495 0.8147641528 -0.5533234696 0.173183467 0
-2.350333875 1.79878001 -0.4995788874 0.7722045613 -0.6138070647 0.1641371465 0
-2.218820979 1.965612915 -0.4716249582 0.7261400396 -0.6699985131 0.1543458302 0
-2.075981057 2.122411601 -0.4412633956 0.6746093518 -0.7241137839 0.1433926444 0
-1.922566521 2.268391545 -0.4086541293 0.6196234722 -0.7737703383 0.1317050348 0
-1.759364051 2.402822536 -0.3739643735 0.5596376434 -0.820155777 0.1189546533 0
-1.587174117 2.524972262 -0.3373642732 0.4945612571 -0.8627621211 0.1051222404 0
-1.406877517 2.634237763 -0.2990410476 0.4140482211 -0.9059903671 0.08800866626 0
-1.219398768 2.729953222 -0.2591912093 0.3429634772 -0.9365157602 0.07289913748 0
-1.025788387 2.811882466 -0.2180380526 0.2832158606 -0.9571649857 0.06019938958 0
-0.8269878217 2.87956709 -0.175781688 0.231896673 -0.9714907692 0.04929115948 0
-0.6239726243 2.932566105 -0.1326294756 0.184911326 -0.9819689343 0.03930411567 0
-0.4177509649 2.970467416 -0.08879570873 0.1345025089 -0.990500743 0.02858939082 0
-0.209391569 2.99305491 -0.04450755194 0.07254341095 -0.997246053 0.015419578 0
-1.797222412e-16 3.000556956 -3.856760132e-17 7.07890845e-17 -1 1.387778781e-17 0
-1.766213288e-16 -3.000556956 -5.089009728e-17 7.257124182e-17 1 2.081668171e-17 0
-0.2057768118 -2.99305491 -0.05900555127 0.07129108345 0.997246053 0.02044238923 0
-0.410539269 -2.970467416 -0.117720241 0.1321805724 0.990500743 0.03790216922 0
-0.6132008939 -2.932566105 -0.1758325269 0.1817191748 0.9819689343 0.05210713488 0
-0.8127114102 -2.87956709 -0.2330412468 0.2278934069 0.9714907692 0.06534738285 0
-1.008080053 -2.811882466 -0.2890623036 0.278326664 0.9571649856 0.07980888665 0
-1.198348109 -2.729953222 -0.3436207907 0.3370428486 0.9365157602 0.09664548165 0
-1.382590384 -2.634237763 -0.3964514131 0.4069004461 0.9059903672 0.1166768254 0
-1.559774499 -2.524972262 -0.4472581405 0.4860235739 0.8627621211 0.1393650172 0
-1.728991893 -2.402822536 -0.4957804474 0.549976537 0.820155777 0.1577032343 0
-1.889376975 -2.268391545 -0.5417701295 0.6089268218 0.7737703383 0.1746069565 0
-2.040143093 -2.122411601 -0.5850016182 0.6629634722 0.7241137838 0.1901017166 0
-2.180517149 -1.965612915 -0.6252532309 0.7136045782 0.6699985131 0.2046228201 0
-2.309759719 -1.79878001 -0.6623129415 0.7588738813 0.6138070646 0.2176035839 0
-2.427232618 -1.622778128 -0.6959977533 0.8006987604 0.5533234696 0.229596675 0
-2.53237389 -1.43852892 -0.726146528 0.8378136108 0.4902585914 0.2402391871 0
-2.624524831 -1.246900721 -0.7525703851 0.8700375876 0.4251995922 0.2494792637 0
-2.703362158 -1.048950386 -0.7751766249 0.8977085548 0.3575716619 0.257413786 0
-2.768430876 -0.8456544736 -0.7938347796 0.9204951812 0.2881322764 0.263947746 0
-2.819382624 -0.6380435772 -0.8084449579 0.9382825359 0.2173452451 0.2690481878 0
-2.855938452 -0.4271771163 -0.8189271731 0.9508413176 0.1468438459 0.2726493605 0
-2.877987533 -0.2141371266 -0.8252496453 0.9586293645 0.07395489698 0.274882547 0
-2.885309427 -3.684676002e-19 -0.8273491646 0.9612616959 -5.551115123e-17 0.2756373559 0
-2.877987533 0.2141371266 -0.8252496453 0.9586293645 -0.07395489698 0.274882547 0
-2.855938452 0.4271771163 -0.8189271731 0.9508413176 -0.1468438459 0.2726493605 0
-2.819382624 0.6380435772 -0.8084449579 0.9382825359 -0.2173452451 0.2690481878 0
-2.768430876 0.8456544736 -0.7938347796 0.9204951812 -0.2881322764 0.263947746 0
-2.703362158 1.048950386 -0.7751766249 0.8977085548 -0.3575716619 0.257413786 0
-2.624524831 1.246900721 -0.7525703851 0.8700375876 -0.4251995922 0.2494792637 0
-2.53237389 1.43852892 -0.726146528 0.8378136108 -0.4902585914 0.2402391871 0
-2.427232618 1.622778128 -0.6959977533 0.8006987604 -0.5533234696 0.229596675 0
-2.309759719 1.79878001 -0.6623129415 0.7588738813 -0.6138070646 0.2176035839 0
-2.180517149 1.965612915 -0.6252532309 0.7136045782 -0.6699985131 0.2046228201 0
-2.040143093 2.122411601 -0.5850016182 0.6629634722 -0.7241137838 0.1901017166 0
-1.889376975 2.268391545 -0.5417701295 0.6089268218 -0.7737703383 0.1746069565 0
-1.728991893 2.402822536 -0.4957804474 0.549976537 -0.820155777 0.1577032343 0
-1.559774499 2.524972262 -0.4472581405 0.4860235739 -0.8627621211 0.1393650172 0
-1.382590384 2.634237763 -0.3964514131 0.4069004461 -0.9059903672 0.1166768254 0
-1.198348109 2.729953222 -0.3436207907 0.3370428486 -0.9365157602 0.09664548165 0
-1.008080053 2.811882466 -0.2890623036 0.278326664 -0.9571649856 0.07980888665 0
-0.8127114102 2.87956709 -0.2330412468 0.2278934069 -0.9714907692 0.06534738285 0
-0.6132008939 2.932566105 -0.1758325269 0.1817191748 -0.9819689343 0.05210713488 0
-0.410539269 2.970467416 -0.117720241 0.1321805724 -0.990500743 0.03790216922 0
-0.2057768118 2.99305491 -0.05900555127 0.07129108345 -0.997246053 0.02044238923 0
-1.766213136e-16 3.000556956 -5.136798877e-17 7.257124182e-17 -1 -0 0
-1.726608042e-16 -3.000556956 -6.308055348e-17 7.54706356e-17 1 1.387778781e-17 0
-0.2011595306 -2.99305491 -0.07321608148 0.06969143297 0.997246053 0.02536560719 0
-0.4013274671 -2.970467416 -0.1460712523 0.1292146655 0.990500743 0.0470302921 0
-0.5994417103 -2.932566105 -0.2181789397 0.177641706 0.9819689343 0.06465629335 0
-0.7944755504 -2.87956709 -0.2891654522 0.222779867 0.9714907692 0.08108524038 0
-0.9854604532 -2.811882466 -0.358678272 0.2720814877 0.9571649856 0.09902956284 0
-1.171459218 -2.729953222 -0.4263762861 0.3294801812 0.9365157602 0.1199209787 0
-1.351567411 -2.634237763 -0.4919303073 0.3977702932 0.9059903671 0.1447765468 0
-1.524775816 -2.524972262 -0.554973011 0.4751180328 0.862762121 0.1729288217 0
-1.69019626 -2.402822536 -0.6151811287 0.5376360003 0.820155777 0.195683501 0
-1.846982574 -2.268391545 -0.67224668 0.5952635411 0.7737703383 0.2166582105 0
-1.994365757 -2.122411601 -0.7258897717 0.6480877011 0.7241137838 0.2358846324 0
-2.131590058 -1.965612915 -0.7758353326 0.6975925069 0.669998513 0.2539029082 0
-2.257932645 -1.79878001 -0.8218202738 0.741846044 0.6138070646 0.2700098785 0
-2.372769652 -1.622778128 -0.8636175261 0.782732444 0.5533234696 0.2848913111 0
-2.475551734 -1.43852892 -0.9010271443 0.8190145005 0.4902585914 0.2980968997 0
-2.565634964 -1.246900721 -0.933814759 0.850515426 0.4251995922 0.3095622989 0
-2.642703316 -1.048950386 -0.9618653449 0.8775655039 0.3575716618 0.3194077221 0
-2.706312003 -0.8456544735 -0.9850170137 0.8998408372 0.2881322764 0.3275152804 0
-2.75612048 -0.6380435773 -1.003145816 0.9172290739 0.2173452451 0.3338440809 0
-2.791856058 -0.4271771165 -1.016152503 0.9295060579 0.1468438459 0.3383125377 0
-2.813410394 -0.2141371266 -1.023997641 0.9371193544 0.07395489699 0.3410835511 0
-2.820567998 -1.494512328e-18 -1.026602795 0.9396926208 5.551115123e-17 0.3420201434 0
-2.813410394 0.2141371266 -1.023997641 0.9371193544 -0.07395489699 0.3410835511 0
-2.791856058 0.4271771165 -1.016152503 0.9295060579 -0.1468438459 0.3383125377 0
-2.75612048 0.6380435773 -1.003145816 0.9172290739 -0.2173452451 0.3338440809 0
-2.706312003 0.8456544735 -0.9850170137 0.8998408372 -0.2881322764 0.3275152804 0
-2.642703316 1.048950386 -0.9618653449 0.8775655039 -0.3575716618 0.3194077221 0
-2.565634964 1.246900721 -0.933814759 0.850515426 -0.4251995922 0.3095622989 0
-2.475551734 1.43852892 -0.9010271443 0.8190145005 -0.4902585914 0.2980968997 0
