# .PCD v0.7 - Point Cloud Data file format
VERSION 0.7
FIELDS x y z normal_x normal_y normal_z rgb
SIZE 4 4 4 4 4 4 4
TYPE F F F F F F F
COUNT 1 1 1 1 1 1 1
WIDTH 504
HEIGHT 1
VIEWPOINT 0 0 0 1 0 0 0
POINTS 504
DATA ascii
0.2697280487 2.983500272 -0.0154654799 -0.08662199923 -0.996133462 0.01465452697 2.938735877e-39
0.09340155045 2.990843189 0.1262001597 -0.03360207735 -0.9988913179 -0.03297022107 2.938735877e-39
0.1692567572 -2.98770943 0.04536804712 -0.05314683672 0.9983103347 -0.02349232587 3.673419846e-40
-0.02273953359 -2.951991318 0.4397267232 -0.001807690762 -0.9913847607 0.1309694184 7.346839693e-40
0.1796935665 -2.955746302 0.3830075627 0.05789494942 -0.9908987745 0.1215228111 3.673419846e-40
0.3528714147 -2.912080588 0.4696332702 0.1188615449 -0.9828282782 0.1411400324 4.959116793e-39
0.1136950704 -2.886035592 0.8002390451 0.0470248545 -0.9776232176 0.2050402584 7.346839693e-40
0.3377117347 -2.855799811 0.9069391524 0.1180709577 -0.9668392677 0.226453261 3.673419846e-40
0.4290190884 -2.700161098 1.268908986 0.1620290998 -0.9283977886 0.3344011317 7.346839693e-40
0.5527579854 -2.5551876 1.509010239 0.203312007 -0.8781124974 0.4331081501 5.510129769e-40
0.5632679321 -2.503710035 1.594929208 0.2078208524 -0.8582786966 0.469220814 5.510129769e-40
0.3516388807 -2.486133484 1.705826869 0.1321012876 -0.8452129744 0.5178458049 2.663229389e-39
0.8369904949 -2.291327718 1.743739987 0.2980723608 -0.780104009 0.5500823601 4.683610304e-39
0.6659068174 -2.152831787 2.033840311 0.235792745 -0.7097225286 0.663849165 5.510129769e-40
0.8521032115 -1.892195887 2.172351467 0.2980842651 -0.6250857351 0.7213969744 2.204051908e-39
0.6336254043 -1.751693738 2.362617462 0.2144512096 -0.5629767514 0.7981653063 2.663229389e-39
0.8940835283 -1.616515036 2.340996343 0.3022717224 -0.5322060962 0.7908150713 2.204051908e-39
0.6024581766 -1.65311027 2.406884295 0.1985228539 -0.5375593313 0.8195234236 0
0.7965696707 -1.049398815 2.655866719 0.2540510048 -0.3859976396 0.8868280043 2.204051908e-39
0.7349518308 -1.243550188 2.588368403 0.2304112514 -0.4242585559 0.8757370227 2.204051908e-39
0.9861736681 -0.8415479515 2.708807332 0.3279010492 -0.3321224536 0.8844069073 3.58158435e-39
1.009174975 -0.78739589 2.71583598 0.3370660719 -0.3149454495 0.8872405688 3.58158435e-39
1.192378933 -0.499455183 2.701904799 0.3955572566 -0.2062794512 0.8949766727 3.58158435e-39
1.114999379 -0.02240684256 2.807185789 0.393986618 0.004106471493 0.9191070023 1.836709923e-40
0.911681883 -0.1373860285 2.896648786 0.3356862007 -0.05455204328 0.9403929228 1.836709923e-39
0.9095187741 -0.01877442645 2.897196134 0.3385910454 -0.006297337131 0.940912561 1.469367939e-39
1.130421245 0.5831375034 2.683735249 0.3811405293 0.2567803539 0.888141738 2.479558396e-39
0.6352078708 0.7880616448 2.824957286 0.2363936079 0.3487478601 0.9069139938 0
0.8875334248 0.8955052698 2.667797468 0.3127676059 0.3588565775 0.8794307144 1.744874427e-39
0.8848507622 0.9253384888 2.63560469 0.3031396211 0.3615100949 0.8817124369 9.183549616e-41
0.7257082089 1.444049188 2.470993187 0.256972282 0.4715603676 0.8435615366 3.397913358e-39
0.7015223933 1.510273665 2.444098977 0.2488260919 0.4893296677 0.8358481036 4.316268319e-39
0.6237522514 1.683974377 2.379364337 0.2200450117 0.5453365984 0.8088190077 2.295887404e-39
0.8009152425 1.99351536 2.098512322 0.2726418425 0.6596352393 0.7003911599 4.7754458e-39
0.8281326038 1.989866303 2.125877483 0.2887454221 0.6414927248 0.7107131385 4.316268319e-39
0.7012236356 2.12151942 2.029734673 0.2338416512 0.7020429003 0.6726468971 4.316268319e-39
0.7041730237 2.030695414 2.102890481 0.2374246589 0.6731819441 0.700325354 4.316268319e-39
0.5887868998 2.49367961 1.618325413 0.1649416515 0.838442806 0.5194303733 2.479558396e-39
0.2588188655 2.552525746 1.559288379 0.05193619534 0.8748848964 0.4815382121 1.010190458e-39
0.4272207098 2.68404303 1.294404675 0.1017760668 0.9244940738 0.3673585982 2.938735877e-39
0.3965952205 2.642396629 1.409215128 0.08593762582 0.906598231 0.4131517542 2.938735877e-39
0.1639871588 2.837967906 0.9238623508 0.02934285058 0.9687845425 0.2461615474 2.938735877e-39
0.281573739 2.858563774 0.8712060184 0.06273580012 0.972665314 0.2235763994 2.938735877e-39
0.4278736626 2.877071126 0.7127264921 0.107187243 0.9774935544 0.1817064832 2.938735877e-39
-0.1094986736 2.951301227 0.3994988077 -0.03897902336 0.9926786983 0.1143225157 2.938735877e-39
-0.1647547496 2.976979055 0.2863290159 0.04844683553 -0.9951675183 -0.08540793054 2.938735877e-39
0.1224622826 2.98733015 0.05181912324 -0.04307427927 -0.9990451759 -0.007303632121 2.938735877e-39
-0.04627085513 -3.010376367 -0.1873971294 0.02595996381 0.9980054509 0.05754302968 7.346839693e-40
0.1401849897 -2.978488294 -0.03561718477 -0.04659708457 0.9989010745 0.005035373891 3.673419846e-40
0.1359873743 -2.922197929 0.5906447286 0.04922041371 -0.9852896661 0.1636509233 3.673419846e-40
0.1786142941 -2.898131461 0.7223084842 0.06392972351 -0.9795335402 0.1908586759 3.673419846e-40
0.3540979932 -2.838442028 0.9755095606 0.1254878935 -0.9620268099 0.2423988564 7.346839693e-40
0.02171217652 -2.861931618 0.8551175341 0.0225769277 -0.9751887961 0.2202205584 7.346839693e-40
0.1385285015 -2.813012992 1.13363733 0.06004817164 -0.9576330259 0.2816615073 7.346839693e-40
0.2551412526 -2.714227382 1.33789382 0.1067685418 -0.9291451248 0.3539630143 2.020380915e-39
0.3481128058 -2.419188351 1.790465446 0.1269945173 -0.8168377489 0.5627152784 2.663229389e-39
0.4968122757 -2.522327185 1.605422546 0.185127389 -0.8621407248 0.4716367463 3.489748854e-39
0.650503487 -2.365402219 1.784871397 0.2334187981 -0.7981798131 0.555359929 1.744874427e-39
0.7714595962 -1.985533401 2.10857858 0.2732338374 -0.6610260843 0.6988474697 2.571393892e-39
0.6107039235 -1.922496041 2.249952312 0.2107320295 -0.6247290901 0.7518680574 2.663229389e-39
0.3370464373 -1.913662723 2.308630785 0.09676041252 -0.6162328792 0.7815973779 2.020380915e-39
0.4923828736 -1.590905472 2.459524052 0.1540657372 -0.5151688918 0.8431279628 0
0.8290609036 -1.276110361 2.547263688 0.2702661041 -0.4335131067 0.859664248 2.204051908e-39
0.7703794875 -1.314121854 2.553892966 0.2485673451 -0.4408707829 0.8624657835 2.204051908e-39
0.5170884807 -0.8394929399 2.813309847 0.1428813083 -0.3487500104 0.926260418 1.469367939e-39
0.841875007 -0.6052406269 2.840298251 0.2813436854 -0.259327322 0.9239020894 2.663229389e-39
0.5814525527 -0.4311598848 2.922872898 0.181492312 -0.2099629118 0.9607164599 4.040761831e-39
0.7025847875 -0.4164042925 2.896822235 0.2319364659 -0.1984768697 0.9522669836 1.469367939e-39
0.6652662194 -0.3833568776 2.900454162 0.2191069571 -0.1861677414 0.9577753982 1.469367939e-39
0.7187732342 0.1921681013 2.957922498 0.2794814223 0.09074635426 0.9558531445 9.183549616e-40
0.7511429224 0.1833511988 2.941608475 0.2856184793 0.08595197258 0.9544811903 9.183549616e-40
0.6050760975 0.6300866176 2.865231496 0.2215946941 0.2880557084 0.9316220803 1.744874427e-39
0.7863777029 0.7337242332 2.786600358 0.2941990986 0.3211554639 0.9001700164 9.183549616e-41
0.8159702615 0.6803877011 2.804425069 0.310714024 0.3030548815 0.9008965169 1.744874427e-39
0.7408858565 1.116159717 2.635333653 0.2693241439 0.4083380796 0.8721952294 0
0.7887385469 1.420172567 2.473963096 0.280988564 0.4574021868 0.8436993934 0
0.7635466103 1.50701122 2.438901768 0.274493324 0.4787804862 0.8339200568 3.397913358e-39
0.800342134 1.528360875 2.412193327 0.2824743596 0.4862828766 0.8268840306 3.397913358e-39
0.3780039607 1.636973045 2.462694678 0.1322689436 0.5259139127 0.8401901469 1.561203435e-39
0.5204105816 2.002973002 2.171711009 0.1729976565 0.6685724142 0.7232445906 1.102025954e-39
0.4785647892 2.129053251 2.112397152 0.1474673797 0.7034405291 0.6952875621 4.316268319e-39
0.2611379819 2.313478039 1.896784686 0.07164648031 0.7845951582 0.615854869 1.836709923e-40
0.4994744699 2.418025095 1.72290201 0.1415151346 0.8179748305 0.5575756839 2.479558396e-39
0.3767191211 2.548690217 1.565251098 0.0865660151 0.8695589718 0.4861825991 9.183549616e-40
0.3237350593 2.637574258 1.444403821 0.05931996079 0.9013942056 0.4289168083 4.408103816e-39
0.2167246828 2.707432713 1.317872713 0.02952632822 0.9290421134 0.3687939092 2.938735877e-39
0.08037071378 2.851483427 0.9097309688 0.006175744229 0.970419335 0.2413465856 2.938735877e-39
0.3307160504 2.832191317 0.9270332774 0.07634676175 0.966878024 0.2435529895 2.938735877e-39
0.03206576893 2.878413625 0.8299443687 -0.003844074813 0.9757887099 0.2186815418 2.938735877e-39
0.0414583856 2.939312102 0.6212266261 0.01122992383 0.9862058624 0.1651420172 2.938735877e-39
0.247598493 2.944548208 0.3797174824 0.06987591237 0.9923529405 0.1017496848 2.938735877e-39
-0.2358068337 2.972435929 0.186827058 0.07266070741 -0.9957609486 -0.05639640839 2.938735877e-39
0.09474677504 -2.998584602 -0.05622019699 -0.02477701374 0.9996412272 0.01017430924 3.673419846e-40
0.19898195 -2.975802 0.2014550159 -0.06396021371 0.9952663364 -0.07317110561 4.959116793e-39
0.2612461198 -2.985026388 0.2449699264 -0.07593594047 0.9931488179 -0.08882093425 4.959116793e-39
0.1982972544 -2.917068777 0.5365055632 0.07184650099 -0.9852950938 0.1550214773 3.673419846e-40
0.01849747387 -2.868323151 0.9667989468 0.01585098233 -0.9720997675 0.2340315968 7.346839693e-40
0.0437165927 -2.76278152 1.261813827 0.03116646962 -0.9445343045 0.3269305718 2.020380915e-39
-0.02703625702 -2.759151948 1.253699189 0.007836491758 -0.9449908345 0.3270029236 2.020380915e-39
0.3979329085 -2.672886523 1.358167897 0.1540343516 -0.9183350295 0.3646014155 7.346839693e-40
0.1180914698 -2.452520753 1.772739539 0.04178013908 -0.8287885217 0.5580000057 1.561203435e-39
0.1263410929 -2.365727759 1.89723889 0.0369103242 -0.7871813646 0.6156160551 1.928545419e-39
0.09138635592 -2.329578236 1.930921732 0.02249715043 -0.7736996802 0.6331529698 1.469367939e-39
0.2826485268 -2.212163379 2.047558143 0.0870160904 -0.7288911471 0.6790772384 2.295887404e-39
0.2320520029 -1.922568327 2.301841414 0.0550302887 -0.6203039676 0.7824286901 4.591774808e-40
0.4244453326 -1.860408998 2.349911193 0.1279131086 -0.5958729386 0.7928263856 0
0.2849361383 -1.543039714 2.508009439 0.08590942578 -0.4997562531 0.8618951549 2.020380915e-39
0.6011671965 -1.591390931 2.447371292 0.1946002114 -0.514524051 0.8351022445 2.663229389e-39
0.4697230776 -1.470931062 2.533888367 0.1425276479 -0.474400445 0.868694473 0
0.6348753906 -0.9457640314 2.724033109 0.1915160194 -0.3638772371 0.911545375 1.469367939e-39
0.6587494403 -0.6503660743 2.869239328 0.2001979723 -0.2870568407 0.936759917 1.469367939e-39
0.6070015916 -0.5489330719 2.893098516 0.1870990533 -0.2519947026 0.9494696488 1.469367939e-39
0.6384175589 -0.2451110021 2.935210059 0.2133293152 -0.1275017398 0.9686247517 9.183549616e-40
0.4074873647 -0.3882495988 2.983178538 0.1045984892 -0.2066686036 0.9728038057 1.561203435e-39
0.4783212387 0.08572921233 3.03603673 0.1690112507 0.0215254431 0.98537904 9.183549616e-41
0.7278753867 0.042910909 2.971661068 0.2855178309 0.01531679094 0.9582509923 1.469367939e-39
0.6873426467 0.1938255156 2.973578081 0.2709899061 0.09303521206 0.9580756338 9.183549616e-40
0.4351056139 0.7092512498 2.886020918 0.1530431327 0.3238283367 0.9336557224 1.744874427e-39
0.411709181 0.73526392 2.856438595 0.1406683712 0.318551897 0.9374097814 6.428484731e-39
0.2916917228 1.124731441 2.710368969 0.1060074014 0.4085550708 0.9065567743 2.295887404e-39
0.3153960001 1.277937866 2.649762627 0.1142391419 0.4371931903 0.8920826939 2.295887404e-39
0.4630936389 1.611929647 2.46471238 0.1626484496 0.5135477039 0.8425047404 2.295887404e-39
0.5925440068 1.380309027 2.549711842 0.2121145438 0.4540272939 0.8653708088 1.744874427e-39
0.6264420069 1.87388778 2.280345775 0.215114065 0.6007769531 0.7699305109 2.295887404e-39
0.4536067612 1.877015814 2.30473197 0.1509524862 0.6164610292 0.7727801411 1.102025954e-39
0.4794872825 2.24427177 1.976712695 0.1431215633 0.7500520719 0.6457074473 5.510129769e-40
0.1240666432 2.387781027 1.795368794 0.02553910961 0.8173822514 0.5755293294 1.102025954e-39
0.1849223576 2.321779621 1.890505363 0.04783590322 0.789381366 0.6120365883 3.673419846e-40
0.1279235227 2.581458713 1.481955783 0.01741189401 0.8946398593 0.4464485952 2.938735877e-39
0.4375357152 2.741691119 1.189979319 0.09909398598 0.9407737787 0.324229979 2.938735877e-39
-0.01995355945 2.774592472 1.123818694 -0.02955357312 0.9519282408 0.3048921297 2.938735877e-39
0.2288588585 2.738364199 1.229862286 0.03678496925 0.940733792 0.3371450706 2.938735877e-39
0.04044545365 2.929617678 0.6030118695 0.005803214017 0.9865149462 0.1635682844 2.938735877e-39
0.3178704309 2.911744793 0.7016633271 0.07849725547 0.9817536806 0.1731989941 2.938735877e-39
0.05754904596 2.922198636 0.591974543 0.008561459068 0.9866975359 0.1623412274 2.938735877e-39
0.161092112 2.96912279 0.1921487832 -0.04954779534 -0.9975318378 -0.04975186961 2.938735877e-39
-0.01906240218 3.002035496 0.08817601384 -0.002864956869 -0.9997258506 -0.02323823552 2.938735877e-39
0.07283196343 -2.992729058 -0.1169550537 -0.01843989902 0.9993063251 0.03235488835 3.673419846e-40
-0.03867025759 -2.989986935 0.3312965494 -0.01343844461 -0.9940223868 0.108346217 7.346839693e-40
0.01102996754 -2.979337007 0.295214445 -0.004594690354 0.9951731384 -0.09802710513 7.346839693e-40
-0.07952637818 -2.940028452 0.508154089 -0.01691127911 -0.9893402819 0.1446368391 7.346839693e-40
-0.1332412231 -2.876959337 0.8066036473 -0.02731902238 -0.9782403297 0.2056684915 7.346839693e-40
0.04794001045 -2.792502243 1.183636352 0.03193936645 -0.953629229 0.2992844307 2.020380915e-39
0.04220223702 -2.649917766 1.482429665 0.02746162389 -0.9066221669 0.4210488164 5.510129769e-40
0.225523476 -2.617481181 1.529323933 0.09338494606 -0.8934881124 0.4392701275 5.510129769e-40
0.148292999 -2.563750661 1.624119463 0.06009136034 -0.8717810263 0.4861963292 4.867281296e-39
0.09356649701 -2.522479809 1.698445963 0.03566569309 -0.8532449169 0.5202894099 1.561203435e-39
0.01743318536 -2.29253795 1.965504372 -0.005831424978 -0.7577671123 0.6524990406 2.755064885e-40
0.4114830165 -2.217369232 2.046038608 0.1377224057 -0.7304773545 0.6689061021 4.591774808e-40
0.2131074439 -2.17005156 2.095717015 0.05690427515 -0.71125999 0.7006219595 2.295887404e-39
0.06027398869 -1.940955719 2.27762593 -0.002766810597 -0.6299979027 0.7765919053 2.295887404e-39
0.2260608284 -1.709922731 2.411786074 0.06334247174 -0.5596790583 0.82628511 1.928545419e-39
0.102546362 -1.570155202 2.522966717 0.02586350158 -0.5065118004 0.8618450414 1.928545419e-39
0.2053576999 -1.257708914 2.649939171 0.06689692917 -0.4280898523 0.9012568331 2.479558396e-39
0.05966611434 -0.8991118572 2.793058765 0.01812266143 -0.3462050904 0.9379837976 6.428484731e-40
0.1058261286 -0.9197901077 2.83271018 0.02932417756 -0.352924942 0.9351920006 2.479558396e-39
0.3476470872 -0.5275593547 2.950906148 0.08160540382 -0.2549484809 0.9635049715 1.561203435e-39
0.1075011335 -0.2143480881 2.997781396 0.01487457122 -0.1269708398 0.9917949148 6.428484731e-40
0.3819246175 -0.2646008987 2.986984126 0.1081899133 -0.1512053678 0.9825639315 3.489748854e-39
0.4943281208 -0.1543140516 3.023836166 0.1643579178 -0.09929672618 0.9813901543 9.183549616e-40
0.2415067112 0.2699271349 3.05742913 0.0704105927 0.1199972326 0.9902742108 2.571393892e-39
0.08811104158 0.6250963084 2.943737936 0.02387311316 0.2927391528 0.9558942739 2.112216412e-39
0.4145292347 0.4716368375 2.971983371 0.1427548432 0.2257509077 0.9636688137 1.744874427e-39
0.4052386801 0.8685632813 2.805354766 0.1408290401 0.3620340735 0.921465415 2.295887404e-39
0.1725738293 1.266607172 2.647511049 0.07093569094 0.4342417133 0.8979990324 1.102025954e-39
0.3970395016 1.521462984 2.51200408 0.1424727063 0.4939875294 0.8577166483 2.295887404e-39
0.1105525528 1.585384901 2.496278794 0.04175087924 0.5265436641 0.8491222727 1.102025954e-39
0.297712524 1.656850799 2.463658234 0.1022746154 0.5312492301 0.8410197136 1.102025954e-39
0.1783979774 1.840366224 2.361545925 0.05622140431 0.6028704836 0.7958557242 1.102025954e-39
0.08728795437 1.901454945 2.32732142 0.02322140438 0.6242310373 0.7808946014 1.102025954e-39
0.3118316887 2.157503223 2.067711958 0.09633824615 0.7255950458 0.681344826 4.408103816e-39
-0.005532850198 2.329101842 1.852219963 -0.01613971204 0.798575481 0.6016782453 1.102025954e-39
0.4307819576 2.260222148 1.943198818 0.1308205977 0.7586199733 0.638264606 2.204051908e-39
0.002006187969 2.503978765 1.623692504 -0.01810802354 0.8638943329 0.5033474754 9.183549616e-40
0.06351075363 2.580595595 1.552030604 -0.004482302182 0.8838721321 0.4677071339 9.183549616e-40
0.3237560662 2.632940846 1.413305848 0.06852081592 0.9063293561 0.416979611 2.938735877e-39
-0.05966663351 2.834097445 1.00159937 -0.0356003849 0.9642062268 0.2627526686 2.938735877e-39
0.004199661643 2.906248187 0.6319100366 -0.01155203962 0.9844844433 0.1750912086 2.938735877e-39
-0.05442216347 2.913391351 0.7380332332 -0.02155277701 0.9805296919 0.1951845311 2.938735877e-39
0.2917645951 2.922958619 0.4909842409 0.07899954083 0.9882361303 0.1309519884 2.938735877e-39
-0.09837546775 2.988534824 0.1222298634 0.02679661417 -0.9990864868 -0.03328863774 2.938735877e-39
-0.1070919967 2.986529433 -0.1553709004 0.02327445226 -0.9979973166 0.05881883993 2.938735877e-39
-0.01614840717 -2.988367531 -0.1896278821 0.01119377598 0.9982414975 0.05821178621 3.673419846e-40
0.2209457533 -2.962924852 0.3704648282 0.06787447953 -0.9905957911 0.1187982896 4.959116793e-39
0.09429536868 -2.932734599 0.5454271533 0.03532500318 -0.98737344 0.154420964 3.673419846e-40
0.2137666345 -2.929642673 0.5350209253 0.07097468866 -0.985491812 0.1541703021 3.673419846e-40
-0.1744098446 -2.910462513 0.6425795506 -0.04235552041 -0.9844857584 0.170275663 7.346839693e-40
-0.08934673524 -2.850407622 1.026074386 -0.01838396085 -0.968568843 0.2480653672 2.020380915e-39
-0.1270721859 -2.69611406 1.400294717 -0.03021147691 -0.9221597675 0.3856275793 4.867281296e-39
0.2055522635 -2.670867802 1.436542305 0.08864503906 -0.9143273434 0.3951551165 5.510129769e-40
0.08752204317 -2.522866577 1.689711452 0.03473135159 -0.8541029246 0.5189430868 3.489748854e-39
-0.09226006825 -2.42045359 1.776365662 -0.03184981928 -0.819304635 0.572473147 1.561203435e-39
0.24390202 -2.31884028 1.915066364 0.08448441746 -0.7767618875 0.6241020376 1.928545419e-39
0.1878886556 -2.177551629 2.10770662 0.04215355997 -0.7111509181 0.7017745002 2.295887404e-39
0.1249534165 -2.179962079 2.075955589 0.02872386983 -0.7139990407 0.6995572236 2.295887404e-39
0.2001771007 -1.777352209 2.414914872 0.04141316403 -0.5670788602 0.8226217333 1.928545419e-39
0.2256293449 -1.57311268 2.496145731 0.06604115899 -0.5097427984 0.857788345 1.928545419e-39
0.2106471245 -1.307457911 2.617585882 0.06715172696 -0.4409243592 0.8950286895 2.479558396e-39
0.007914423668 -1.356579253 2.629686159 0.008161926521 -0.4511281797 0.8924218445 1.928545419e-39
0.2134170196 -1.027610455 2.762517724 0.06582575997 -0.3789850666 0.9230586594 2.479558396e-39
0.00759703302 -1.027314429 2.767029583 0.008424470078 -0.3744686971 0.9272012851 1.928545419e-39
0.284758273 -0.5966673482 2.904483412 0.0699535567 -0.2726022127 0.9595803945 3.489748854e-39
0.2512200377 -0.6571771228 2.88571657 0.06119981473 -0.2895073198 0.9552173022 3.489748854e-39
-0.029326477 0.02945418471 3.058836108 -0.03422519572 -0.02270109049 0.9991562923 2.846900381e-39
0.169012764 -0.2703982534 2.988187633 0.03620969251 -0.1528905673 0.9875795323 2.571393892e-39
0.1674769387 0.148417449 3.071414954 0.03594659674 0.04153264024 0.9984903014 2.571393892e-39
0.2314009161 0.3876614302 3.024689777 0.06647596811 0.1877520691 0.9799643392 6.428484731e-39
0.333594182 0.6012444746 2.945668088 0.1103091223 0.2913781588 0.9502266393 1.744874427e-39
0.2955461895 0.6713684313 2.928123384 0.09463576257 0.3200234042 0.942671254 1.744874427e-39
-0.1025516944 1.047437958 2.773453319 -0.003007966142 0.3907428127 0.9204949791 7.346839693e-40
0.1459599825 1.200498635 2.693128167 0.06408017271 0.423750371 0.9035094657 2.3877229e-39
-0.08341000757 1.346206748 2.614379075 -0.0102740657 0.4593030963 0.8882201919 1.102025954e-39
0.1416457767 1.640865778 2.468492152 0.05294977025 0.5432098427 0.8379256463 1.102025954e-39
0.2783518328 1.753969668 2.400298816 0.09386587223 0.5747498216 0.812927943 1.102025954e-39
0.03394938535 1.803749106 2.379251415 0.008918244645 0.5962313629 0.80276312 1.469367939e-39
0.0480483884 1.86867519 2.338406925 0.01230345306 0.6201201674 0.7844103537 2.938735877e-39
0.2155290912 2.235319504 2.021819905 0.05699823074 0.7504048625 0.6585163202 1.836709923e-40
0.2676323305 2.336814014 1.864756643 0.07163303751 0.7931641479 0.6047804085 2.479558396e-39
0.1130453 2.543452165 1.55592092 0.01315254497 0.8783462218 0.4778440385 1.010190458e-39
-0.1346341182 2.588959563 1.515056037 -0.05934862979 0.8916733637 0.4487720498 5.142787785e-39
0.1775760281 2.762915549 1.1392858 0.02721827985 0.950106779 0.310735054 2.938735877e-39
0.0154213191 2.743036337 1.224812469 -0.0209169613 0.9418410559 0.3354070754 2.938735877e-39
0.2077866685 2.852409831 0.9609185481 0.03776153161 0.9690882467 0.2438073766 2.938735877e-39
0.2568082224 2.945277116 0.414515379 0.07213814142 0.9912340787 0.1106846414 2.938735877e-39
-0.1963256864 2.961938368 0.3098876467 0.06312761493 -0.9937994055 -0.0915294804 2.938735877e-39
-0.149874891 3.004926264 0.05834253834 0.03588189049 -0.9992405307 -0.01519380579 2.938735877e-39
0.2193084018 2.989236897 0.06846717211 -0.07332525432 -0.9972074595 -0.01416650597 2.938735877e-39
0.08619603879 -3.004155319 0.07045982575 -0.02261844016 0.9991540253 -0.03434588602 3.673419846e-40
-0.1744476973 -2.971032287 0.1228966225 0.05215402757 0.997797835 -0.04098094416 7.346839693e-40
-0.1397684311 -2.935117434 0.5153677092 -0.03416891604 -0.9888148522 0.1451815183 7.346839693e-40
-0.04725712451 -2.943862545 0.4780895472 -0.008201124894 -0.9902646492 0.1389556264 7.346839693e-40
0.05524530983 -2.913126764 0.7160211058 0.02358774738 -0.9824407356 0.1850778734 7.346839693e-40
-0.2033270023 -2.852446758 0.9532207407 -0.04994801805 -0.9710306287 0.233676515 2.020380915e-39
-0.06599524222 -2.827340063 1.076459155 -0.006990341671 -0.964027366 0.2657110699 2.020380915e-39
-0.02927505385 -2.67640088 1.467052805 -0.0002070264099 -0.9112536011 0.4118456404 4.867281296e-39
0.1594178239 -2.472668079 1.763445711 0.05650256738 -0.8325645512 0.5510387718 1.561203435e-39
-0.2453525194 -2.455580938 1.785239845 -0.08525745966 -0.8162762504 0.5713354957 1.561203435e-39
0.06710929196 -2.308035515 1.91511659 0.01882866623 -0.7745181383 0.6322714091 2.755064885e-40
0.06470087225 -2.208087488 2.045446394 0.008123926671 -0.725484619 0.6881904311 1.469367939e-39
-0.2665919469 -1.883301404 2.255057322 -0.08975440538 -0.6240907227 0.7761796935 2.846900381e-39
0.07883869876 -1.68581908 2.45312536 0.01101084846 -0.54761735 0.8366564404 1.285696946e-39
0.0180046 -1.532299684 2.516769478 0.001265613498 -0.5061808955 0.8624264023 1.285696946e-39
-0.3452043402 -1.404939924 2.58887451 -0.1068339989 -0.4719992625 0.8751018186 1.010190458e-39
-0.2802806187 -1.386728786 2.611920301 -0.08654048874 -0.4647104077 0.8812235703 2.112216412e-39
-0.2847602772 -1.15551456 2.747826192 -0.09599396496 -0.3892154859 0.9161312483 2.112216412e-39
-0.1793137974 -0.5585628136 2.931857221 -0.082277549 -0.2481553633 0.9652198302 2.3877229e-39
-0.274448868 -0.5167230309 2.924150488 -0.1135127702 -0.233384145 0.965736347 3.122406869e-39
-0.009457278281 -0.6511514591 2.887921423 -0.01449506847 -0.2815977434 0.9594230578 6.428484731e-40
-0.2882960647 -0.1371073642 3.028306966 -0.1331699076 -0.1189355479 0.9839309484 2.3877229e-39
-0.01410899377 0.1028452722 3.07606738 -0.02794982661 0.01541508515 0.9994904614 2.846900381e-39
-0.01228465183 -0.01076454886 3.064868743 -0.0287315016 -0.04689448634 0.9984865587 2.846900381e-39
-0.1762947695 0.1829865675 3.036317072 -0.07652721571 0.05906966616 0.995316211 2.112216412e-39
0.1176842017 0.5286241442 2.972842796 0.03024689777 0.2501955832 0.9677227368 2.846900381e-39
-0.2807225608 0.6865646589 2.880094642 -0.07701134261 0.2806883968 0.9567043833 4.499939312e-39
0.01634280182 1.246656847 2.664462802 0.02499264037 0.4339506314 0.9005899275 1.102025954e-39
-0.2112157569 1.1818327 2.680236577 -0.04844189719 0.4208367605 0.9058420412 3.306077862e-39
-0.06442034189 1.464156199 2.573806937 -0.005013167405 0.4879686143 0.872846779 1.102025954e-39
-0.1501676733 1.718044201 2.416341906 -0.05138612754 0.5764667214 0.815503271 2.938735877e-39
-0.2374182411 1.866541478 2.341641749 -0.08000921374 0.611911834 0.7868687521 2.938735877e-39
0.1263468525 2.054408403 2.212743856 0.03381062148 0.6795197175 0.7328777493 1.469367939e-39
0.1471778072 2.219949011 1.99348524 0.03816478246 0.754936177 0.6546868091 3.673419846e-40
-0.3144599707 2.263020647 1.912780249 -0.110742877 0.778255953 0.6181049157 3.122406869e-39
-0.12963339 2.373726119 1.84924629 -0.04573734561 0.8098711464 0.5848220426 1.102025954e-39
-0.01248647338 2.399877587 1.781324883 -0.01539215715 0.823423168 0.567218977 1.744874427e-39
-0.1375912817 2.603819147 1.427107925 -0.06253684894 0.9045022701 0.4218587275 2.938735877e-39
-0.1293526895 2.633597409 1.409336987 -0.06004255265 0.9101666202 0.4098678024 2.938735877e-39
0.09284997079 2.869374676 0.8581952195 0.01302816122 0.9742900325 0.2249204296 2.938735877e-39
0.1228771277 2.912791325 0.6821526826 0.02794951391 0.9832273194 0.1802300281 2.938735877e-39
0.05181170477 2.925572395 0.6073802096 0.008303636631 0.9862397621 0.1651126323 2.938735877e-39
-0.2085456762 2.974094502 0.2263411701 0.06448537125 -0.9955944393 -0.06806871071 2.938735877e-39
-0.1836565205 2.935585072 0.4578701714 -0.06477743525 0.9891445842 0.1318972153 2.938735877e-39
-0.1090477459 2.981069372 -0.09105885976 0.02765033494 -0.9988481372 0.03921552927 2.938735877e-39
0.19992176 -2.981469262 0.2105739664 -0.06120288948 0.9951988965 -0.07637645392 4.959116793e-39
-0.11552938 -2.996924283 0.2260290985 0.03644907459 0.9962015397 -0.07908196568 7.346839693e-40
-0.1246227044 -2.913957149 0.6306547211 -0.02852522321 -0.9852638904 0.168645717 7.346839693e-40
-0.08315968067 -2.895297642 0.6981698516 -0.01373642447 -0.9827368388 0.1844982825 7.346839693e-40
-0.2045986651 -2.917276852 0.6147327473 -0.05066738038 -0.9853068915 0.1631047091 7.346839693e-40
0.03931864764 -2.875519602 0.9160738395 0.02240226645 -0.9743280487 0.2240156065 7.346839693e-40
-0.09555306298 -2.851093237 1.002343536 -0.01875837432 -0.9696402123 0.2438154673 2.020380915e-39
-0.05149420839 -2.724689653 1.369949028 -0.00556630899 -0.9298182573 0.3679769348 5.510129769e-40
-0.2501725462 -2.659512517 1.457331589 -0.07269016961 -0.9070795559 0.414635766 4.867281296e-39
-0.06272475408 -2.421537106 1.779543051 -0.02170915955 -0.8198379515 0.5721839264 1.561203435e-39
0.02445818899 -2.224858019 2.029307466 -0.004052372543 -0.7310928607 0.6822659359 1.469367939e-39
-0.1139785761 -1.986250536 2.230633937 -0.05467500165 -0.6453721831 0.7619090428 1.469367939e-39
-0.2497863152 -1.98086932 2.205175895 -0.08908012663 -0.6484657068 0.7560138611 2.020380915e-39
-0.4717750716 -1.816723176 2.286187204 -0.1398169887 -0.605624302 0.7833711857 2.020380915e-39
-0.3722890865 -1.805646535 2.329717063 -0.1149396416 -0.5955204613 0.7950750021 2.846900381e-39
-0.207883251 -1.388464583 2.607508071 -0.06290840354 -0.4654469955 0.8828372597 2.112216412e-39
-0.4894079065 -1.277582553 2.636198158 -0.1626596748 -0.4265129005 0.8897351156 3.122406869e-39
-0.1828109085 -1.004039948 2.778797318 -0.05784690928 -0.3620229253 0.9303725795 2.3877229e-39
-0.296398164 -0.5890174974 2.904017227 -0.1214611512 -0.2544586281 0.9594258676 3.122406869e-39
-0.3301463367 -0.6977949807 2.848330541 -0.1246543349 -0.2789116985 0.9521919771 2.663229389e-39
-0.09318968405 -0.5393294794 2.918117111 -0.0451214593 -0.2447450069 0.9685370078 2.3877229e-39
-0.07435213409 -0.1259157471 3.00419844 -0.04407822947 -0.0830825019 0.9955673797 2.846900381e-39
-0.516692647 -0.2263869996 2.958682597 -0.2067533146 -0.1408024487 0.9682085196 1.928545419e-39
-0.4928716108 0.398815681 2.992056054 -0.1643489215 0.1535801167 0.9743729162 7.346839693e-40
-0.297364139 0.5086151496 2.953630539 -0.09297580946 0.2171608584 0.9716978236 7.346839693e-40
-0.5437032915 0.793861486 2.829140238 -0.1599708245 0.3107623319 0.936929084 2.846900381e-39
-0.5415189247 0.815741701 2.811432646 -0.1623052007 0.3153958399 0.934977265 2.846900381e-39
-0.315602382 1.073675533 2.764976555 -0.05659990532 0.3972236651 0.9159747871 4.408103816e-39
-0.229260507 1.385854863 2.6051074 -0.05413199279 0.4777116446 0.876847371 6.428484731e-40
-0.1027004021 1.481373719 2.550441676 -0.022921909 0.4979829577 0.8668838215 1.102025954e-39
-0.04460233708 1.633612118 2.461505559 -0.01271561354 0.5502243995 0.8349200102 2.938735877e-39
-0.3885223864 1.76939551 2.364977733 -0.1373862416 0.5952280741 0.7917250535 8.265194654e-40
-0.2211219771 2.12301762 2.118716978 -0.07623002286 0.7141234887 0.6958567572 3.673419846e-40
-0.2072107647 2.003185713 2.22833399 -0.07252730632 0.6689157596 0.7397915223 3.673419846e-40
-0.3929828729 2.158560286 2.036626625 -0.1345841768 0.7336400815 0.6660775707 3.58158435e-39
-0.09662791594 2.43601398 1.758342551 -0.03943575487 0.8352165289 0.5485053975 1.744874427e-39
-0.0378506397 2.607653496 1.444358344 -0.03442598296 0.9038681933 0.4264236635 2.938735877e-39
-0.3701928751 2.581533687 1.428950972 -0.1397334451 0.8953451849 0.422884812 2.938735877e-39
-0.1350584201 2.695491656 1.284702685 -0.06135631953 0.9299437351 0.3625466199 2.938735877e-39
-0.1132893398 2.792149851 1.093107814 -0.05313824964 0.9546945627 0.2928047445 2.938735877e-39
-0.182259441 2.841801797 0.8932179462 -0.07083907984 0.9675775638 0.242436554 2.938735877e-39
-0.0198102712 2.927403656 0.5634432604 -0.01525746789 0.9874925263 0.1569258427 2.938735877e-39
0.05126805036 2.983873688 0.238107497 -0.01895262133 -0.9975265186 -0.06768783398 2.938735877e-39
-0.05094618852 3.004881408 -0.01688618902 0.004916152871 -0.9999216846 0.01150895627 2.938735877e-39
0.1857806302 2.970610416 0.00186388714 -0.05886710058 -0.9981858013 0.01264004041 2.938735877e-39
-0.03431821237 -3.007469254 0.1908478523 0.01475738692 0.9973831774 -0.07077440871 7.346839693e-40
-0.06351941817 -2.976175425 0.1127636318 0.01808203173 0.9990017594 -0.04084758178 7.346839693e-40
0.1167793651 -2.935604915 0.4740238817 0.04339397628 -0.9891603446 0.1402810593 3.673419846e-40
-0.2637728558 -2.902260777 0.6636618714 -0.06779004797 -0.9826001733 0.1729202385 7.346839693e-40
0.07543238179 -2.906801318 0.7162247267 0.03145915265 -0.9818129815 0.1872260429 7.346839693e-40
-0.364861338 -2.728817564 1.275764583 -0.1056905054 -0.9352374158 0.3378764467 4.867281296e-39
-0.4557516582 -2.632061446 1.451671056 -0.1350023336 -0.8981867836 0.4183716908 4.867281296e-39
-0.4373943954 -2.658744047 1.435714692 -0.1328747951 -0.9037860544 0.4068354173 4.867281296e-39
-0.1941261323 -2.557891733 1.657311597 -0.06409718265 -0.8592430921 0.5075360676 2.663229389e-39
-0.3048855345 -2.228356945 1.987227669 -0.1066537442 -0.7340563897 0.6706610139 2.479558396e-39
-0.1927371382 -2.344942945 1.878086475 -0.07175748522 -0.7833843163 0.6173814675 1.561203435e-39
-0.34440532 -2.190722521 2.041584906 -0.1145711585 -0.711302899 0.6934851372 2.020380915e-39
-0.5982831176 -2.038784205 2.094584435 -0.1823702511 -0.6746553314 0.7152491002 2.3877229e-39
-0.4943208265 -1.835902172 2.301172143 -0.1449440802 -0.6053338443 0.7826634977 2.020380915e-39
-0.2709491553 -1.696586658 2.445126312 -0.09133235744 -0.5604530913 0.8231346991 2.112216412e-39
-0.2677148011 -1.46333233 2.577813922 -0.083653561 -0.488530416 0.8685275553 2.112216412e-39
-0.5026606746 -1.365986389 2.598659719 -0.1690754214 -0.4516738608 0.8760161102 3.122406869e-39
-0.6424398033 -0.7974146746 2.786362785 -0.2496908417 -0.2937613338 0.9226910438 4.959116793e-39
-0.334863236 -0.8036811672 2.832273688 -0.125781601 -0.3090404891 0.9426945237 2.663229389e-39
-0.2822125382 -0.8115017881 2.818695153 -0.1016039784 -0.3135172111 0.9441311296 2.112216412e-39
-0.4936949179 -0.5233553704 2.880501481 -0.1914490125 -0.2292228453 0.9543606042 1.928545419e-39
-0.7835273572 -0.172268597 2.882985907 -0.3052463121 -0.111423249 0.9457322816 2.112216412e-39
-0.6825630459 -0.2326060709 2.906433684 -0.2669315217 -0.1357821647 0.9541020734 1.102025954e-39
-0.329326288 0.1322053622 3.030444284 -0.1334292754 0.02441778826 0.990757488 3.122406869e-39
-0.3771415374 0.331307917 3.009179613 -0.1323259305 0.1253383562 0.9832497875 7.346839693e-40
-0.4418456844 0.7324447665 2.850576152 -0.1279045398 0.2897823092 0.9485075867 5.510129769e-40
-0.6874297798 1.005754668 2.7732713 -0.2001108416 0.378550385 0.9036898014 2.846900381e-39
-0.2780453135 1.302031582 2.630269771 -0.07593343473 0.4565818863 0.8864350481 2.846900381e-39
-0.3194472445 1.167960042 2.716369539 -0.06636297842 0.420642565 0.9047959923 6.428484731e-40
-0.6825540306 1.283387068 2.630608387 -0.2073537544 0.4715250129 0.8571281017 2.846900381e-39
-0.2958755742 1.704753277 2.418590534 -0.1033595753 0.57362263 0.8125723824 2.846900381e-39
-0.4887448905 1.945706462 2.235379136 -0.1736218976 0.6423736138 0.7464660588 3.673419846e-40
-0.4216304635 1.997453572 2.194883667 -0.1483110156 0.6675650146 0.7296305874 7.346839693e-40
-0.3322124882 2.031231192 2.191851695 -0.1178759097 0.6756223517 0.7277634972 3.673419846e-40
-0.1296414682 2.356701608 1.872785235 -0.04420065507 0.8018038425 0.5959504176 3.58158435e-39
-0.3226042004 2.368731711 1.842991809 -0.1105212708 0.8090431847 0.5772643883 3.122406869e-39
-0.237771761 2.50169819 1.650429863 -0.08712645312 0.8589000212 0.5046778524 4.7754458e-39
-0.1584913384 2.715125065 1.25489742 -0.06781536139 0.934453781 0.3495671722 2.938735877e-39
-0.2203465851 2.808332278 0.9884134708 -0.08496718365 0.9596356613 0.268104411 2.938735877e-39
-0.004114177008 2.868379097 0.8476168965 -0.01701390979 0.9740267018 0.2257930715 2.938735877e-39
0.01307538626 2.855853216 0.928511871 -0.01230219146 0.9697086492 0.2439544872 2.938735877e-39
-0.1565933937 2.943280512 0.5589678024 -0.04847838893 0.9866384122 0.1555457787 2.938735877e-39
-0.04398445223 2.925491171 0.52354931 -0.02451882916 0.9887805898 0.1473491507 2.938735877e-39
0.0709030278 2.984453876 0.2066236489 -0.02458115823 -0.9979962945 -0.05830234063 2.938735877e-39
0.1495470824 2.989209962 -0.1062862358 -0.05329033734 -0.9975202494 0.04597273106 2.938735877e-39
0.2350670863 -2.969718534 0.2503593259 -0.07490002005 0.9934288422 -0.08653971648 4.959116793e-39
0.1949604161 -2.950828906 0.3546126519 0.06555913461 -0.9913453193 0.1137385501 3.673419846e-40
-0.04657807213 -2.971991134 0.4152421834 -0.01225694101 -0.9918031148 0.1271862764 7.346839693e-40
-0.0216960361 -2.893485445 0.79721763 0.003974977132 -0.9795316356 0.2012510233 7.346839693e-40
-0.3923762803 -2.868963871 0.808848529 -0.1025500938 -0.9742646238 0.2007284758 5.510129769e-40
-0.2783797171 -2.882976858 0.818527706 -0.07182816773 -0.9768575968 0.2014694762 2.020380915e-39
-0.1353746652 -2.832237112 1.008496814 -0.02723007948 -0.9672890167 0.2522111834 7.346839693e-40
-0.5989181825 -2.695023786 1.244864624 -0.1774128808 -0.9253870663 0.3349379752 4.867281296e-39
-0.3116161762 -2.581517232 1.545741563 -0.09355243846 -0.8815075423 0.4628092415 4.867281296e-39
-0.3843127718 -2.54188582 1.627293137 -0.1196421713 -0.8580284105 0.4994727195 4.867281296e-39
-0.272840968 -2.18710516 2.042704881 -0.09871709908 -0.7135885422 0.6935750333 2.020380915e-39
-0.6383487995 -2.161898043 2.001493042 -0.1954406016 -0.7102074299 0.6763197304 2.3877229e-39
-0.6053758754 -1.880060264 2.204300595 -0.1798262769 -0.6297224699 0.7557196048 2.479558396e-39
-0.4143844144 -1.657191829 2.418175021 -0.1257568058 -0.5534501294 0.8233335777 2.479558396e-39
-0.6977290518 -1.636096095 2.380934945 -0.2087729526 -0.5400964676 0.8152972831 2.020380915e-39
-0.4601327486 -1.360509204 2.615545795 -0.1576078259 -0.4508282701 0.878586162 1.010190458e-39
-0.5777521744 -1.198342564 2.661024525 -0.2044541478 -0.3951284493 0.8955847308 4.959116793e-39
-0.717098015 -0.894899372 2.711287472 -0.2522021498 -0.3148448453 0.9150228407 9.183549616e-41
-0.4398994375 -0.6589686506 2.865711047 -0.1743761312 -0.2654739905 0.9482175516 2.663229389e-39
-0.7405745367 -0.4862566468 2.824054972 -0.2804253633 -0.2106253937 0.9364820122 9.183549616e-41
-0.5987275333 -0.6191752379 2.831266985 -0.2290443109 -0.2519548081 0.940243308 4.959116793e-39
-0.756997289 -0.3060858245 2.865944903 -0.2953354638 -0.1603104308 0.9418479334 2.112216412e-39
-0.5517743629 -0.1152434308 2.972040976 -0.2199514638 -0.1012834827 0.9702386354 1.928545419e-39
-0.8813320391 0.333062499 2.89530599 -0.338731992 0.08402954288 0.9371230834 2.112216412e-39
-0.7225255761 0.5058630419 2.920395536 -0.2538103967 0.1822803611 0.9499232351 5.510129769e-40
-0.5705380369 0.5980391223 2.89782173 -0.1822949491 0.2352823639 0.9546783546 5.510129769e-40
-0.5452293008 0.7205571052 2.876162308 -0.1574470822 0.287686875 0.9446939601 5.510129769e-40
-0.7906731006 1.245286737 2.603431784 -0.255158969 0.4534400965 0.8539824234 1.010190458e-39
-0.810194828 1.347678349 2.588419693 -0.2631375773 0.4986441506 0.8259010997 4.040761831e-39
-0.4345852715 1.620947384 2.461104385 -0.1432503876 0.5536731904 0.8203202574 2.846900381e-39
-0.7300311695 1.46501134 2.493764898 -0.238530669 0.519314575 0.8206189689 2.204051908e-39
-0.7241841197 2.024193303 2.091043542 -0.2527086233 0.6773426995 0.6909017435 3.58158435e-39
-0.7636700936 1.927839862 2.148605112 -0.2646771666 0.6479546066 0.7142134312 4.316268319e-39
-0.646404734 2.186702018 1.961282842 -0.2285101448 0.7407535535 0.631717727 3.122406869e-39
-0.396669083 2.339776568 1.866364318 -0.1367836518 0.7949980596 0.5909892705 3.122406869e-39
-0.3569680797 2.459619315 1.649199251 -0.1311072227 0.8508276795 0.5088252706 3.765255342e-39
-0.4458225315 2.557839299 1.532915869 -0.1607472065 0.8779511595 0.4509568684 3.765255342e-39
-0.4469524973 2.543653778 1.529287346 -0.1637391114 0.8763923692 0.4529082894 9.183549616e-40
-0.208585367 2.663700313 1.361296693 -0.08343038126 0.9174190358 0.3890779924 2.938735877e-39
-0.1659084258 2.859154693 0.8566446125 -0.06319199261 0.9708625671 0.2311550301 2.938735877e-39
-0.3713718038 2.865818632 0.814011964 -0.1181074239 0.9684998114 0.2192230639 2.938735877e-39
-0.1951880141 2.95614773 0.3973506071 -0.06221799138 0.9913470295 0.1155854174 2.938735877e-39
0.05866699864 2.923711941 0.5820676759 0.009164475038 0.9871016314 0.1598323552 2.938735877e-39
-0.03538977663 2.980777365 -0.02915525003 0.008022102916 -0.9997839528 0.01917533994 2.938735877e-39
0.1645666127 2.958576238 -0.2349629649 -0.05494973208 -0.9944442497 0.08978396914 2.938735877e-39
0.1256961339 -3.005232707 -0.05463287899 -0.03213761815 0.9994331009 0.01003246794 3.673419846e-40
-0.2024304884 -2.972688324 0.1078893031 0.06130859913 0.9974895057 -0.03543926733 7.346839693e-40
-0.2702445357 -2.976184045 0.2504706268 0.07391500239 0.9940347522 -0.080196532 7.346839693e-40
-0.2752589634 -2.961542526 0.4139144839 -0.07197688858 -0.9900207671 0.1211536557 7.346839693e-40
-0.32029952 -2.895081345 0.6170808266 -0.08404215813 -0.9827373948 0.1648154376 7.346839693e-40
-0.4842962815 -2.719318733 1.231594182 -0.138247522 -0.9345842478 0.3277802716 4.867281296e-39
-0.2902379429 -2.796410562 1.126764997 -0.07905663774 -0.9560240198 0.2824325081 5.510129769e-40
-0.5679568222 -2.704404922 1.265315849 -0.1676739125 -0.9252224541 0.3403657877 4.867281296e-39
-0.4579132156 -2.561098184 1.579892055 -0.14249965 -0.866407666 0.4785724668 4.867281296e-39
-0.6328226575 -2.381639152 1.784132168 -0.2004557902 -0.7905472976 0.5786643642 2.3877229e-39
-0.4130847808 -2.328500194 1.881667723 -0.1344546208 -0.7692424836 0.6246502673 2.3877229e-39
-0.7159482752 -2.18131316 1.985171934 -0.2212064178 -0.7155579393 0.6626043738 2.3877229e-39
-0.8517490925 -1.967827147 2.112915621 -0.2578033365 -0.6537638387 0.7114283399 2.3877229e-39
-0.8739524912 -1.937538945 2.137209996 -0.2639592785 -0.640887371 0.7208251362 2.3877229e-39
-0.5698549724 -1.614889314 2.418516984 -0.1714641505 -0.5377568366 0.8254802419 1.744874427e-39
-1.076727096 -1.43218669 2.380576791 -0.3339153365 -0.4575787849 0.8240887111 4.408103816e-39
-0.8345181709 -1.136697678 2.596857287 -0.2794943054 -0.3668808135 0.8872887929 8.265194654e-40
-0.9847815253 -1.295660187 2.479556435 -0.310490693 -0.4096284567 0.8577878858 2.571393892e-39
-0.9560985271 -0.6768351781 2.695240215 -0.3356193766 -0.2474728298 0.9089096944 8.265194654e-40
-0.9268748487 -0.5847912131 2.727758155 -0.3333625582 -0.2254381584 0.9154490928 8.265194654e-40
-1.020479085 -0.4739546796 2.735707682 -0.3696224519 -0.1955911267 0.9083630079 8.265194654e-40
-0.8941369391 -0.08128103799 2.868838989 -0.353292356 -0.09052477001 0.9311228583 2.112216412e-39
-0.7814977084 0.2431959686 2.928334338 -0.299717557 0.0536113107 0.952520453 5.510129769e-40
-0.7383549562 0.3757170592 2.924999111 -0.2715255338 0.1188385483 0.955066115 5.510129769e-40
-0.7760139645 0.6527425625 2.843986464 -0.2686512473 0.2442847407 0.9317464638 2.846900381e-39
-0.8060699099 0.6202562655 2.861718696 -0.2807910181 0.2281893037 0.9322478457 5.510129769e-40
-0.8762143875 0.9480365747 2.742756577 -0.2929694635 0.3509406889 0.8893871633 2.846900381e-39
-0.6383522463 0.9241538167 2.781435266 -0.1899526274 0.3554925252 0.9151737889 2.846900381e-39
-0.6696308663 1.35353869 2.610247496 -0.2023248669 0.496337473 0.8442237625 2.846900381e-39
-0.8057006606 1.535488605 2.423860017 -0.2672979384 0.5396449488 0.798332726 3.765255342e-39
-0.5425219964 1.499790522 2.51317879 -0.1727499193 0.524142984 0.8339254149 4.040761831e-39
-0.6255578766 1.858017712 2.247188133 -0.2183618655 0.6246701204 0.7497368447 7.346839693e-40
-0.8126774693 2.03940142 2.058276666 -0.2848769479 0.6779563869 0.677657924 1.377532442e-39
-0.8470962928 2.196309271 1.866130335 -0.2985909786 0.7492193839 0.5911968727 1.744874427e-39
-0.4484540093 2.319304024 1.825371838 -0.160393561 0.7990320988 0.579501174 4.7754458e-39
-0.7540501076 2.379429976 1.667909889 -0.2662466534 0.8196856638 0.5071766281 4.7754458e-39
-0.3842264735 2.559352076 1.491089228 -0.1441833807 0.8851063214 0.4424906243 4.408103816e-39
-0.557284998 2.495826654 1.567011597 -0.2021640919 0.8603950614 0.4678140851 3.765255342e-39
-0.5154535447 2.765028475 1.03654804 -0.1685663849 0.9444015492 0.2822960993 2.938735877e-39
-0.5513716955 2.802461464 0.8039139766 -0.1764390319 0.958083864 0.2257090552 2.938735877e-39
-0.1166659132 2.895437575 0.724458667 -0.04588352651 0.9795802558 0.1957478593 2.938735877e-39
-0.1109721811 2.885334436 0.8020302937 -0.04433249085 0.97591144 0.2136152885 2.938735877e-39
0.09561874205 2.944519001 0.5477786065 0.02640129199 0.988736302 0.1473210672 2.938735877e-39
0.07969034962 2.972936107 0.304481263 -0.02558403646 -0.9960273762 -0.08529315912 2.938735877e-39
-0.2028774402 2.986854361 0.2213381751 0.05601201206 -0.9961713877 -0.06712094232 2.938735877e-39
-0.2158279422 -2.965327026 0.2260615724 0.06206101955 0.9955125298 -0.0714369146 7.346839693e-40
-0.2156005782 -2.95470622 0.4092679793 -0.05798946417 -0.9908990827 0.1214752233 7.346839693e-40
0.06719808672 -2.98980996 0.3032981821 0.01787758475 -0.9945835381 0.102391297 7.346839693e-40
-0.1356672759 -2.95393887 0.4871413291 -0.03514413256 -0.9895379432 0.1399269416 7.346839693e-40
-0.5288637869 -2.864957208 0.7774986767 -0.1358099004 -0.9715279809 0.194136687 5.510129769e-40
-0.3207512957 -2.785719472 1.125988336 -0.08825273944 -0.9543144285 0.2854740366 5.510129769e-40
-0.5067582 -2.824809584 0.9092367527 -0.136441297 -0.9646646159 0.2254017554 5.510129769e-40
-0.6816016021 -2.709780792 1.166502373 -0.2001951762 -0.9299773437 0.3083245555 4.867281296e-39
-0.7995469912 -2.532838281 1.50128905 -0.2530260958 -0.8556580646 0.4514721158 1.377532442e-39
-0.6301059995 -2.265054781 1.883718087 -0.1984482887 -0.7530116022 0.6273689533 4.867281296e-39
-0.6787131579 -2.363195989 1.790451606 -0.2149890406 -0.7850010908 0.5809931152 3.673419846e-40
-1.004570128 -2.135559823 1.894102357 -0.324739011 -0.7100097983 0.6248445095 1.285696946e-39
-0.8522823406 -1.989778393 2.10415024 -0.2574168117 -0.6594526421 0.7062993685 2.3877229e-39
-0.7408599035 -1.693150682 2.332823442 -0.2208295517 -0.5597585693 0.7986893346 3.397913358e-39
-0.8742939527 -1.742212022 2.291998317 -0.2560672938 -0.5627374518 0.7859746188 2.846900381e-39
-0.9656220098 -1.555422538 2.360139142 -0.2914994286 -0.5043749374 0.8127939503 2.846900381e-39
-0.8210155498 -1.208151258 2.572647496 -0.2677067073 -0.3894746771 0.8812732804 9.183549616e-41
-0.9833735436 -1.081838233 2.566296521 -0.3226268692 -0.3422400317 0.8824872033 2.571393892e-39
-1.116694286 -0.8256448049 2.601607803 -0.3685901726 -0.2752778309 0.8878983052 2.571393892e-39
-1.317619305 -0.4857466485 2.587877677 -0.4315341653 -0.1814857302 0.8836521906 2.112216412e-39
-0.9964348125 -0.344926198 2.768239964 -0.3684683635 -0.1591762233 0.9159115651 8.265194654e-40
-1.070846474 0.01510139858 2.787784684 -0.3964185142 -0.0433027039 0.9170481108 8.265194654e-40
-1.065663201 0.1025488837 2.78624233 -0.3909477568 -0.001184793239 0.9204121075 8.265194654e-40
-1.24774295 0.1772985985 2.70034279 -0.4455476622 0.0307470766 0.8947300699 3.765255342e-39
-1.153784382 0.3667066854 2.75251124 -0.4299501487 0.09746343702 0.8975765973 2.755064885e-40
-1.21470791 0.7754623157 2.640359491 -0.4352938689 0.2665342352 0.8599295025 1.836709923e-40
-1.014552114 0.6610579392 2.751507834 -0.3637722998 0.2322392518 0.9020724161 1.010190458e-39
-1.264222008 1.113754261 2.482259333 -0.4346021811 0.3986497353 0.8075885913 4.591774808e-40
-0.8174736885 1.190714282 2.626339921 -0.2657656028 0.4341590336 0.8607407147 1.010190458e-39
-1.084337163 1.463862173 2.374871608 -0.3602184867 0.5242338246 0.7716356258 7.346839693e-40
-1.075206121 1.57366978 2.281835098 -0.3598114905 0.5521432568 0.7521127012 4.316268319e-39
-1.021761789 1.925538255 2.053691593 -0.3574356642 0.640659083 0.6795555057 1.377532442e-39
-1.065359698 2.1272945 1.811656843 -0.3760256241 0.7263980989 0.5752830017 1.744874427e-39
-0.7780881799 2.08678069 2.035490869 -0.2761068012 0.6906530442 0.6684036258 1.377532442e-39
-0.6085833112 2.177272914 1.995228863 -0.213213411 0.7316945626 0.647428072 3.58158435e-39
-0.8109830278 2.387213032 1.680170669 -0.2918693093 0.8106700851 0.5075690293 4.224432823e-39
-0.4248249555 2.582765164 1.4095395 -0.1563442454 0.8955397097 0.4166114561 2.938735877e-39
-0.4554650642 2.632766554 1.341175693 -0.1625820636 0.908921811 0.3839638187 2.938735877e-39
-0.2539943428 2.783540664 1.059407167 -0.09674306671 0.9531242988 0.2866964424 2.938735877e-39
-0.4709764229 2.798991193 0.8609576701 -0.158054818 0.9580801906 0.238958203 2.938735877e-39
-0.4647998764 2.837807966 0.8395681584 -0.1481080289 0.9621888031 0.2285972856 2.938735877e-39
-0.2258860572 2.895827206 0.6806827826 -0.07825173385 0.9793735795 0.1862902517 2.938735877e-39
-0.004310632759 2.975422671 0.3983477503 0.004450182519 0.9935757639 0.1130813749 2.938735877e-39
0.07937529091 2.983473996 0.1849523092 -0.02712152588 -0.9983169482 -0.0512610363 2.938735877e-39
0.1848368002 2.977789316 -0.05310631042 -0.06114920061 -0.9976582892 0.03063842716 2.938735877e-39
-0.09769836207 -2.995128783 0.02247855608 0.03436269487 0.9993380569 -0.01194375265 7.346839693e-40
-0.01338033774 -3.000173322 0.05063380521 0.007728495081 0.9996856629 -0.02385048694 7.346839693e-40
-0.004043755981 -2.941147171 0.5782294941 0.002855640844 -0.9872505963 0.1591480615 7.346839693e-40
-0.4260750734 -2.903247482 0.5917587698 -0.1092238752 -0.9815101358 0.1571877806 2.020380915e-39
-0.196410102 -2.871036191 0.921611093 -0.05062194819 -0.9735627102 0.2227399103 2.020380915e-39
-0.4500799222 -2.816368608 0.9594797511 -0.1230865027 -0.9629326997 0.240021517 5.510129769e-40
-0.7797289066 -2.736299142 1.003531884 -0.2247972276 -0.939381701 0.2588981001 4.867281296e-39
