# .PCD v0.7 - Point Cloud Data file format
VERSION 0.7
FIELDS x y z normal_x normal_y normal_z rgb
SIZE 4 4 4 4 4 4 4
TYPE F F F F F F F
COUNT 1 1 1 1 1 1 1
WIDTH 599
HEIGHT 1
VIEWPOINT 0 0 0 1 0 0 0
POINTS 599
DATA ascii
-0.2852758768 -1.2463718 2.714218662 -0.09482839896 -0.4206959534 0.9022319488 0
-0.2938426817 -1.04849711 2.795726367 -0.09778469422 -0.3533693203 0.9303592194 0
-0.3009125746 -0.8452817799 2.862991904 -0.1002009279 -0.2847579394 0.9533481473 0
-0.3064479543 -0.6377566046 2.915657524 -0.1021059779 -0.214041196 0.9714734869 0
-0.310423316 -0.4269857662 2.953480563 -0.1034491954 -0.143330429 0.9842533475 0
-0.3128166685 -0.2140384041 2.976251791 -0.1042582557 -0.07185641487 0.991951043 0
-0.3136158106 0 2.983855121 -0.1045284631 0 0.9945218954 0
-0.3128166685 0.2140384041 2.976251791 -0.1042582557 0.07185641487 0.991951043 0
-0.310423316 0.4269857662 2.953480563 -0.1034491954 0.143330429 0.9842533475 0
-0.3064479543 0.6377566046 2.915657524 -0.1021059779 0.214041196 0.9714734869 0
-0.3009125746 0.8452817799 2.862991904 -0.1002009279 0.2847579394 0.9533481473 0
-0.2938426817 1.04849711 2.795726367 -0.09778469422 0.3533693203 0.9303592194 0
-0.2852758768 1.2463718 2.714218662 -0.09482839896 0.4206959534 0.9022319488 0
-0.2752551632 1.437894646 2.61887794 -0.09142667211 0.4847402637 0.8698666796 0
-0.2638303153 1.622081585 2.510177775 -0.0875469076 0.5463739828 0.8329531859 0
-0.251063192 1.798016259 2.38870671 -0.08316092875 0.6058463633 0.7912233844 0
-0.2370158783 1.964783234 2.255055446 -0.07843401728 0.6610289727 0.7462498256 0
-0.2217594068 2.121525704 2.109899818 -0.07318830887 0.7139704024 0.6963402444 0
-0.2053747961 2.267475083 1.95401066 -0.06755226552 0.7631197228 0.642716874 0
-0.187942784 2.401861673 1.788156143 -0.06142321581 0.8091356404 0.5844028611 0
-0.169552704 2.524002446 1.613186219 -0.05500116038 0.8503710054 0.523301085 0
-0.1502993512 2.633291428 1.430002804 -0.04833359602 0.8866732615 0.459863448 0
-0.1302794021 2.729149047 1.239525712 -0.04113487785 0.9193126277 0.3913722196 0
-0.1095956271 2.811097057 1.042732739 -0.03349883055 0.947256743 0.3187200827 0
-0.08835248374 2.878687415 0.8406177308 -0.02456876218 0.9719847914 0.2337561576 0
-0.06666105711 2.931639141 0.6342375923 -0.01828843086 0.9845753197 0.1740027966 0
-0.04463075508 2.969680833 0.4246332697 -0.01329058252 0.9918837594 0.1264514459 0
-0.02237216054 2.992516215 0.212856889 0.007703773796 -0.9972804386 -0.07329651158 0
-1.920156719e-17 3.000082807 1.842824675e-16 0 -1 -1.110223025e-16 0
-3.189865274e-17 -3.000082807 1.809062494e-16 -0 1 0 0
-0.03716580907 -2.992516215 0.2107777773 0.01279791398 0.9972804386 -0.07258057685 0
-0.07414295633 -2.969680833 0.4204856003 -0.02207901429 -0.9918837594 0.1252163124 0
-0.1107408521 -2.931639141 0.6280425811 -0.03038170267 -0.9845753197 0.172303198 0
-0.1467757902 -2.878687415 0.8324068705 -0.04081491919 -0.9719847914 0.2314729091 0
-0.1820660166 -2.811097058 1.032547689 -0.05565001814 -0.9472567431 0.3156069362 0
-0.2164269907 -2.729149047 1.227418458 -0.0683354213 -0.9193126277 0.3875494327 0
-0.2496851826 -2.633291428 1.416035036 -0.08029431035 -0.8866732616 0.4553716625 0
-0.2816698643 -2.524002446 1.59742918 -0.09137081871 -0.8503710053 0.518189663 0
-0.3122204317 -2.401861673 1.770690059 -0.1020394747 -0.8091356403 0.5786946182 0
-0.3411794067 -2.267475083 1.934924567 -0.1122213743 -0.7631197228 0.6364390402 0
-0.3683983832 -2.121525704 2.089291053 -0.1215842658 -0.7139704024 0.6895386362 0
-0.3937432356 -1.964783234 2.233028853 -0.1302987123 -0.6610289727 0.7389607181 0
-0.4170793715 -1.798016259 2.365374657 -0.1381513062 -0.6058463633 0.7834949908 0
-0.438288788 -1.622081585 2.485659235 -0.1454375248 -0.5463739829 0.8248171902 0
-0.4572683456 -1.437894646 2.593297656 -0.1518827935 -0.4847402638 0.8613701258 0
-0.4739152819 -1.2463718 2.687707122 -0.157533921 -0.4206959535 0.8934192624 0
-0.4881469086 -1.04849711 2.768418688 -0.162445074 -0.3533693203 0.9212717956 0
-0.4998917863 -0.8452817799 2.835027199 -0.1664590485 -0.2847579394 0.9440361757 0
-0.5090874501 -0.6377566048 2.8871784 -0.1696238176 -0.2140411961 0.9619844733 0
-0.5156915298 -0.4269857661 2.924631997 -0.171855241 -0.143330429 0.9746395048 0
-0.5196674927 -0.2140384041 2.947180804 -0.1731992947 -0.07185641491 0.9822620119 0
-0.5209950697 7.691037472e-18 2.954709867 -0.1736481775 -0 0.984807753 0
-0.5196674927 0.2140384041 2.947180804 -0.1731992947 0.07185641491 0.9822620119 0
-0.5156915298 0.4269857661 2.924631997 -0.171855241 0.143330429 0.9746395048 0
-0.5090874501 0.6377566048 2.8871784 -0.1696238176 0.2140411961 0.9619844733 0
-0.4998917863 0.8452817799 2.835027199 -0.1664590485 0.2847579394 0.9440361757 0
-0.4881469086 1.04849711 2.768418688 -0.162445074 0.3533693203 0.9212717956 0
-0.4739152819 1.2463718 2.687707122 -0.157533921 0.4206959535 0.8934192624 0
-0.4572683456 1.437894646 2.593297656 -0.1518827935 0.4847402638 0.8613701258 0
-0.438288788 1.622081585 2.485659235 -0.1454375248 0.5463739829 0.8248171902 0
-0.4170793715 1.798016259 2.365374657 -0.1381513062 0.6058463633 0.7834949908 0
-0.3937432356 1.964783234 2.233028853 -0.1302987123 0.6610289727 0.7389607181 0
-0.3683983832 2.121525704 2.089291053 -0.1215842658 0.7139704024 0.6895386362 0
-0.3411794067 2.267475083 1.934924567 -0.1122213743 0.7631197228 0.6364390402 0
-0.3122204317 2.401861673 1.770690059 -0.1020394747 0.8091356403 0.5786946182 0
-0.2816698643 2.524002446 1.59742918 -0.09137081871 0.8503710053 0.518189663 0
-0.2496851826 2.633291428 1.416035036 -0.08029431035 0.8866732616 0.4553716625 0
-0.2164269907 2.729149047 1.227418458 -0.0683354213 0.9193126277 0.3875494327 0
-0.1820660166 2.811097058 1.032547689 -0.05565001814 0.9472567431 0.3156069362 0
-0.1467757902 2.878687415 0.8324068705 -0.04081491919 0.9719847914 0.2314729091 0
-0.1107408521 2.931639141 0.6280425811 -0.03038170267 0.9845753197 0.172303198 0
-0.07414295633 2.969680833 0.4204856003 -0.02207901429 0.9918837594 0.1252163124 0
-0.03716580907 2.992516215 0.2107777773 0.01279791398 -0.9972804386 -0.07258057685 0
-3.189865274e-17 3.000082807 1.809062494e-16 -0 -1 -0 0
-4.444033126e-17 -3.000082807 1.782404333e-16 -0 1 0 0
-0.05177838951 -2.992516215 0.2076717774 0.017829704 0.9972804386 -0.07151103687 0
-0.1032939405 -2.969680833 0.4142893673 -0.03075987932 -0.9918837594 0.1233711375 0
-0.1542811288 -2.931639141 0.6187878096 -0.04232695789 -0.9845753197 0.1697641556 0
-0.2044840197 -2.878687415 0.8201406076 -0.05686222999 -0.9719847914 0.2280619479 0
-0.2536493987 -2.811097057 1.017332172 -0.07753008446 -0.947256743 0.3109561847 0
-0.3015201689 -2.729149047 1.209331344 -0.09520304147 -0.9193126277 0.3818385436 0
-0.3478545729 -2.633291428 1.395168489 -0.1118638388 -0.8866732615 0.4486613521 0
-0.3924147573 -2.524002446 1.573889627 -0.1272953276 -0.8503710053 0.5105536729 0
-0.4349769731 -2.401861673 1.74459735 -0.1421586076 -0.8091356404 0.5701670332 0
-0.4753218256 -2.267475083 1.906411715 -0.1563437519 -0.7631197229 0.6270605392 0
-0.5132425599 -2.121525704 2.058503473 -0.1693878764 -0.7139704025 0.679377665 0
-0.5485523154 -1.964783234 2.200123167 -0.1815286051 -0.6610289727 0.7280714682 0
-0.5810635823 -1.798016259 2.330518737 -0.1924686243 -0.6058463634 0.7719494884 0
-0.6106119617 -1.622081585 2.449030814 -0.202619585 -0.5463739829 0.8126627681 0
-0.6370537628 -1.437894646 2.555083085 -0.2115989573 -0.4847402638 0.8486770634 0
-0.6602458194 -1.2463718 2.648101344 -0.2194719536 -0.4206959534 0.8802539272 0
-0.6800729329 -1.04849711 2.727623553 -0.2263140378 -0.3533693202 0.9076960283 0
-0.6964355755 -0.8452817798 2.793250527 -0.2319061973 -0.2847579394 0.9301249548 0
-0.7092467228 -0.6377566047 2.844633233 -0.2363152672 -0.2140411961 0.9478087681 0
-0.7184473461 -0.4269857661 2.881534918 -0.2394240254 -0.143330429 0.9602773163 0
-0.7239865492 -0.2140384041 2.903751448 -0.2412965242 -0.07185641492 0.9677874989 0
-0.7258360931 0 2.911169563 -0.2419218955 0 0.9702957263 0
-0.7239865492 0.2140384041 2.903751448 -0.2412965242 0.07185641492 0.9677874989 0
-0.7184473461 0.4269857661 2.881534918 -0.2394240254 0.143330429 0.9602773163 0
-0.7092467228 0.6377566047 2.844633233 -0.2363152672 0.2140411961 0.9478087681 0
-0.6964355755 0.8452817798 2.793250527 -0.2319061973 0.2847579394 0.9301249548 0
-0.6800729329 1.04849711 2.727623553 -0.2263140378 0.3533693202 0.9076960283 0
-0.6602458194 1.2463718 2.648101344 -0.2194719536 0.4206959534 0.8802539272 0
-0.6370537628 1.437894646 2.555083085 -0.2115989573 0.4847402638 0.8486770634 0
-0.6106119617 1.622081585 2.449030814 -0.202619585 0.5463739829 0.8126627681 0
-0.5810635823 1.798016259 2.330518737 -0.1924686243 0.6058463634 0.7719494884 0
-0.5485523154 1.964783234 2.200123167 -0.1815286051 0.6610289727 0.7280714682 0
-0.5132425599 2.121525704 2.058503473 -0.1693878764 0.7139704025 0.679377665 0
-0.4753218256 2.267475083 1.906411715 -0.1563437519 0.7631197229 0.6270605392 0
-0.4349769731 2.401861673 1.74459735 -0.1421586076 0.8091356404 0.5701670332 0
-0.3924147573 2.524002446 1.573889627 -0.1272953276 0.8503710053 0.5105536729 0
-0.3478545729 2.633291428 1.395168489 -0.1118638388 0.8866732615 0.4486613521 0
-0.3015201689 2.729149047 1.209331344 -0.09520304147 0.9193126277 0.3818385436 0
-0.2536493987 2.811097057 1.017332172 -0.07753008446 0.947256743 0.3109561847 0
-0.2044840197 2.878687415 0.8201406076 -0.05686222999 0.9719847914 0.2280619479 0
-0.1542811288 2.931639141 0.6187878096 -0.04232695789 0.9845753197 0.1697641556 0
-0.1032939405 2.969680833 0.4142893673 -0.03075987932 0.9918837594 0.1233711375 0
-0.05177838951 2.992516215 0.2076717774 0.017829704 -0.9972804386 -0.07151103687 0
-4.444033126e-17 3.000082807 1.782404333e-16 -0 -1 -0 0
-5.676550096e-17 -3.000082807 1.755067241e-16 -0 1 -1.110223025e-16 0
-0.06613871085 -2.992516215 0.2035540215 0.02277462951 0.9972804386 -0.07009310229 0
-0.131941687 -2.969680833 0.4060747582 -0.03929088532 -0.9918837594 0.1209249109 0
-0.1970697633 -2.931639141 0.6065183661 -0.05406600041 -0.9845753197 0.1663980394 0
-0.2611960237 -2.878687415 0.8038787021 -0.07263251374 -0.9719847914 0.2235398918 0
-0.3239970265 -2.811097057 0.9971603146 -0.09903243201 -0.947256743 0.3047904857 0
-0.3851443712 -2.729149047 1.18535249 -0.121606842 -0.9193126277 0.3742673756 0
-0.4443292507 -2.633291428 1.36750482 -0.142888378 -0.8866732616 0.4397652086 0
-0.5012478451 -2.524002446 1.542682241 -0.1625996664 -0.8503710053 0.5004303166 0
-0.5556143503 -2.401861673 1.710005139 -0.1815851581 -0.8091356404 0.5588616517 0
-0.6071485243 -2.267475083 1.868611018 -0.1997044384 -0.7631197228 0.6146270625 0
-0.6555862702 -2.121525704 2.017687071 -0.2163662462 -0.7139704024 0.6659068343 0
-0.7006889034 -1.964783234 2.156498703 -0.2318741088 -0.6610289726 0.7136351274 0
-0.7422169098 -1.798016259 2.284308764 -0.2458482546 -0.6058463633 0.7566431257 0
-0.7799602953 -1.622081585 2.400470961 -0.258814503 -0.5463739829 0.7965491347 0
-0.8137355179 -1.437894646 2.504420407 -0.2702842322 -0.4847402639 0.8318493316 0
-0.8433597057 -1.2463718 2.595594282 -0.280340741 -0.4206959535 0.8628000832 0
-0.8686857102 -1.04849711 2.673539709 -0.2890804225 -0.3533693203 0.8896980571 0
-0.8895864004 -0.8452817798 2.73786542 -0.2962235226 -0.2847579393 0.9116822586 0
-0.9059506168 -0.6377566047 2.788229299 -0.3018554126 -0.214041196 0.9290154338 0
-0.9177029593 -0.4269857661 2.82439929 -0.30582636 -0.1433304291 0.9412367532 0
-0.924778416 -0.2140384041 2.846175306 -0.3082181814 -0.07185641493 0.9485980225 0
-0.927140916 1.477439311e-18 2.853446334 -0.3090169944 1.110223025e-16 0.9510565163 0
-0.924778416 0.2140384041 2.846175306 -0.3082181814 0.07185641493 0.9485980225 0
-0.9177029593 0.4269857661 2.82439929 -0.30582636 0.1433304291 0.9412367532 0
-0.9059506168 0.6377566047 2.788229299 -0.3018554126 0.214041196 0.9290154338 0
-0.8895864004 0.8452817798 2.73786542 -0.2962235226 0.2847579393 0.9116822586 0
-0.8686857102 1.04849711 2.673539709 -0.2890804225 0.3533693203 0.8896980571 0
-0.8433597057 1.2463718 2.595594282 -0.280340741 0.4206959535 0.8628000832 0
-0.8137355179 1.437894646 2.504420407 -0.2702842322 0.4847402639 0.8318493316 0
-0.7799602953 1.622081585 2.400470961 -0.258814503 0.5463739829 0.7965491347 0
-0.7422169098 1.798016259 2.284308764 -0.2458482546 0.6058463633 0.7566431257 0
-0.7006889034 1.964783234 2.156498703 -0.2318741088 0.6610289726 0.7136351274 0
-0.6555862702 2.121525704 2.017687071 -0.2163662462 0.7139704024 0.6659068343 0
-0.6071485243 2.267475083 1.868611018 -0.1997044384 0.7631197228 0.6146270625 0
-0.5556143503 2.401861673 1.710005139 -0.1815851581 0.8091356404 0.5588616517 0
-0.5012478451 2.524002446 1.542682241 -0.1625996664 0.8503710053 0.5004303166 0
-0.4443292507 2.633291428 1.36750482 -0.142888378 0.8866732616 0.4397652086 0
-0.3851443712 2.729149047 1.18535249 -0.121606842 0.9193126277 0.3742673756 0
-0.3239970265 2.811097057 0.9971603146 -0.09903243201 0.947256743 0.3047904857 0
-0.2611960237 2.878687415 0.8038787021 -0.07263251374 0.9719847914 0.2235398918 0
-0.1970697633 2.931639141 0.6065183661 -0.05406600041 0.9845753197 0.1663980394 0
-0.131941687 2.969680833 0.4060747582 -0.03929088532 0.9918837594 0.1209249109 0
-0.06613871085 2.992516215 0.2035540215 0.02277462951 -0.9972804386 -0.07009310229 0
-5.676550096e-17 3.000082807 1.755067241e-16 -0 -1 -1.110223025e-16 0
-6.881411483e-17 -3.000082807 1.703255077e-16 -0 1 -5.551115123e-17 0
-0.08017681104 -2.992516215 0.198444571 0.02760859931 0.9972804386 -0.06833368119 0
-0.159946627 -2.969680833 0.3958817936 -0.04763047009 -0.9918837594 0.1178895503 0
-0.2388982937 -2.931639141 0.591294026 -0.06554163881 -0.9845753197 0.1622212486 0
-0.3166355069 -2.878687415 0.7837003804 -0.08804893917 -0.9719847914 0.2179287718 0
-0.3927661733 -2.811097057 0.9721303921 -0.1200523035 -0.9472567431 0.2971398781 0
-0.4668921887 -2.729149047 1.155598718 -0.1474181862 -0.9193126277 0.3648728147 0
-0.538639201 -2.633291428 1.333178805 -0.1732167792 -0.8866732616 0.4287265732 0
-0.6076389038 -2.524002446 1.503959062 -0.197111836 -0.8503710053 0.4878689142 0
-0.6735448303 -2.401861673 1.667081954 -0.2201270439 -0.8091356404 0.5448335525 0
-0.7360172564 -2.267475082 1.821706636 -0.2420921849 -0.7631197228 0.5991991845 0
-0.7947360301 -2.121525704 1.9670407 -0.2622905015 -0.7139704024 0.6491917724 0
-0.8494118057 -1.964783234 2.102367993 -0.2810899451 -0.6610289726 0.6957220279 0
-0.8997542311 -1.798016259 2.226969868 -0.298030137 -0.6058463633 0.7376504738 0
-0.9455087407 -1.622081585 2.340216254 -0.3137485026 -0.5463739828 0.776554794 0
-0.9864528355 -1.437894646 2.441556445 -0.3276527095 -0.4847402639 0.8109689134 0
-1.022364828 -1.2463718 2.530441746 -0.3398437365 -0.4206959536 0.841142764 0
-1.053066338 -1.04849711 2.606430649 -0.3504384363 -0.3533693203 0.8673655664 0
-1.07840325 -0.8452817798 2.669141706 -0.3590976766 -0.2847579393 0.888797938 0
-1.09824081 -0.6377566047 2.718241392 -0.3659249488 -0.214041196 0.9056960297 0
-1.112487616 -0.4269857662 2.753503473 -0.3707387393 -0.1433304291 0.9176105793 0
-1.121064855 -0.2140384041 2.774732885 -0.3736382304 -0.07185641495 0.9247870719 0
-1.123928801 0 2.781821401 -0.3746065934 0 0.9271838546 0
-1.121064855 0.2140384041 2.774732885 -0.3736382304 0.07185641495 0.9247870719 0
-1.112487616 0.4269857662 2.753503473 -0.3707387393 0.1433304291 0.9176105793 0
-1.09824081 0.6377566047 2.718241392 -0.3659249488 0.214041196 0.9056960297 0
-1.07840325 0.8452817798 2.669141706 -0.3590976766 0.2847579393 0.888797938 0
-1.053066338 1.04849711 2.606430649 -0.3504384363 0.3533693203 0.8673655664 0
-1.022364828 1.2463718 2.530441746 -0.3398437365 0.4206959536 0.841142764 0
-0.9864528355 1.437894646 2.441556445 -0.3276527095 0.4847402639 0.8109689134 0
-0.9455087407 1.622081585 2.340216254 -0.3137485026 0.5463739828 0.776554794 0
-0.8997542311 1.798016259 2.226969868 -0.298030137 0.6058463633 0.7376504738 0
-0.8494118057 1.964783234 2.102367993 -0.2810899451 0.6610289726 0.6957220279 0
-0.7947360301 2.121525704 1.9670407 -0.2622905015 0.7139704024 0.6491917724 0
-0.7360172564 2.267475082 1.821706636 -0.2420921849 0.7631197228 0.5991991845 0
-0.6735448303 2.401861673 1.667081954 -0.2201270439 0.8091356404 0.5448335525 0
-0.6076389038 2.524002446 1.503959062 -0.197111836 0.8503710053 0.4878689142 0
-0.538639201 2.633291428 1.333178805 -0.1732167792 0.8866732616 0.4287265732 0
-0.4668921887 2.729149047 1.155598718 -0.1474181862 0.9193126277 0.3648728147 0
-0.3927661733 2.811097057 0.9721303921 -0.1200523035 0.9472567431 0.2971398781 0
-0.3166355069 2.878687415 0.7837003804 -0.08804893917 0.9719847914 0.2179287718 0
-0.2388982937 2.931639141 0.591294026 -0.06554163881 0.9845753197 0.1622212486 0
-0.159946627 2.969680833 0.3958817936 -0.04763047009 0.9918837594 0.1178895503 0
-0.08017681104 2.992516215 0.198444571 0.02760859931 -0.9972804386 -0.06833368119 0
-6.881411483e-17 3.000082807 1.695388216e-16 -0 -1 -1.110223025e-16 0
-8.052747326e-17 -3.000082807 1.651011911e-16 -0 1 5.551115123e-17 0
-0.09382429786 -2.992516215 0.1923683183 0.03230806278 0.9972804386 -0.06624134524 0
-0.187172323 -2.969680833 0.3837601328 -0.05573800398 -0.9918837594 0.1142798437 0
-0.2795629356 -2.931639141 0.573188961 -0.07669796493 -0.9845753197 0.1572541322 0
-0.3705323737 -2.878687415 0.7597039493 -0.103036399 -0.9719847914 0.2112559248 0
-0.4596218028 -2.811097057 0.9423643481 -0.1404872922 -0.9472567431 0.288041635 0
-0.5463653544 -2.729149047 1.120214985 -0.1725113238 -0.9193126277 0.35370063 0
-0.6303249553 -2.633291428 1.292357677 -0.2027012858 -0.8866732615 0.4155992252 0
-0.7110696067 -2.524002446 1.457908747 -0.2306636965 -0.8503710053 0.4729306635 0
-0.7881938675 -2.401861673 1.616036914 -0.2575964928 -0.8091356404 0.5281510791 0
-0.8613001866 -2.267475083 1.765927081 -0.2833004827 -0.7631197229 0.5808520681 0
-0.9300139162 -2.121525704 1.906811105 -0.3069369038 -0.7139704024 0.6293139133 0
-0.9939964588 -1.964783234 2.037994758 -0.3289363395 -0.6610289725 0.6744194407 0
-1.052908041 -1.798016259 2.158781399 -0.3487600466 -0.6058463632 0.7150640629 0
-1.106450763 -1.622081585 2.268560249 -0.3671539512 -0.5463739828 0.7527771563 0
-1.154364254 -1.437894646 2.366797464 -0.3834248958 -0.4847402638 0.7861375362 0
-1.196389092 -1.2463718 2.452961151 -0.3976910474 -0.4206959536 0.8153874818 0
-1.232316532 -1.04849711 2.526623321 -0.4100891492 -0.3533693203 0.840807358 0
-1.261966228 -0.8452817799 2.587414203 -0.4202223428 -0.2847579394 0.8615834832 0
-1.285180486 -0.6377566048 2.635010486 -0.4282117354 -0.2140411961 0.8779641656 0
-1.301852345 -0.426985766 2.669192864 -0.4338449165 -0.1433304291 0.889513899 0
-1.311889579 -0.2140384041 2.689772244 -0.4372379515 -0.07185641497 0.8964706517 0
-1.315241019 1.560348001e-18 2.696643714 -0.4383711467 -1.110223025e-16 0.8987940464 0
-1.311889579 0.2140384041 2.689772244 -0.4372379515 0.07185641497 0.8964706517 0
-1.301852345 0.426985766 2.669192864 -0.4338449165 0.1433304291 0.889513899 0
-1.285180486 0.6377566048 2.635010486 -0.4282117354 0.2140411961 0.8779641656 0
-1.261966228 0.8452817799 2.587414203 -0.4202223428 0.2847579394 0.8615834832 0
-1.232316532 1.04849711 2.526623321 -0.4100891492 0.3533693203 0.840807358 0
-1.196389092 1.2463718 2.452961151 -0.3976910474 0.4206959536 0.8153874818 0
-1.154364254 1.437894646 2.366797464 -0.3834248958 0.4847402638 0.7861375362 0
-1.106450763 1.622081585 2.268560249 -0.3671539512 0.5463739828 0.7527771563 0
-1.052908041 1.798016259 2.158781399 -0.3487600466 0.6058463632 0.7150640629 0
-0.9939964588 1.964783234 2.037994758 -0.3289363395 0.6610289725 0.6744194407 0
-0.9300139162 2.121525704 1.906811105 -0.3069369038 0.7139704024 0.6293139133 0
-0.8613001866 2.267475083 1.765927081 -0.2833004827 0.7631197229 0.5808520681 0
-0.7881938675 2.401861673 1.616036914 -0.2575964928 0.8091356404 0.5281510791 0
-0.7110696067 2.524002446 1.457908747 -0.2306636965 0.8503710053 0.4729306635 0
-0.6303249553 2.633291428 1.292357677 -0.2027012858 0.8866732615 0.4155992252 0
-0.5463653544 2.729149047 1.120214985 -0.1725113238 0.9193126277 0.35370063 0
-0.4596218028 2.811097057 0.9423643481 -0.1404872922 0.9472567431 0.288041635 0
-0.3705323737 2.878687415 0.7597039493 -0.103036399 0.9719847914 0.2112559248 0
-0.2795629356 2.931639141 0.573188961 -0.07669796493 0.9845753197 0.1572541322 0
-0.187172323 2.969680833 0.3837601328 -0.05573800398 0.9918837594 0.1142798437 0
-0.09382429786 2.992516215 0.1923683183 0.03230806278 -0.9972804386 -0.06624134524 0
-8.052747326e-17 3.000082807 1.64314505e-16 -0 -1 -0 0
-9.184850994e-17 -3.000082807 1.598867621e-16 -0 1 -1.110223025e-16 0
-0.1070146821 -2.992516215 0.1853548666 0.03685012462 0.9972804386 -0.06382628811 0
-0.2134861342 -2.969680833 0.3697688312 -0.06357398791 -0.9918837594 0.1101133771 0
-0.3188655751 -2.931639141 0.5522913769 -0.08748062628 -0.9845753197 0.1515208894 0
-0.4226240441 -2.878687415 0.7320063169 -0.1175218759 -0.9719847914 0.2035538601 0
-0.5242382012 -2.811097057 0.9080071996 -0.160237841 -0.9472567431 0.2775400819 0
-0.6231766831 -2.729149047 1.079373677 -0.1967640036 -0.9193126277 0.3408052514 0
-0.7189398298 -2.633291428 1.245240313 -0.2311982521 -0.8866732615 0.4004471195 0
-0.8110360501 -2.524002446 1.404755646 -0.2630917868 -0.8503710053 0.455688342 0
-0.8990029035 -2.401861673 1.557118705 -0.2938109576 -0.8091356404 0.5088955066 0
-0.9823869485 -2.267475083 1.701544108 -0.323128569 -0.7631197228 0.5596750992 0
-1.060760868 -2.121525704 1.837291718 -0.3500879405 -0.7139704024 0.6063701002 0
-1.133738462 -1.964783234 1.963692617 -0.3751801892 -0.6610289725 0.6498311497 0
-1.200932187 -1.798016259 2.080075564 -0.3977908319 -0.6058463632 0.6889939319 0
-1.262002268 -1.622081585 2.185852047 -0.4187706625 -0.5463739827 0.7253320641 0
-1.316651726 -1.437894646 2.280507685 -0.4373290742 -0.4847402638 0.7574761762 0
-1.364584669 -1.2463718 2.363529977 -0.4536008474 -0.4206959536 0.7856597138 0
-1.405563004 -1.04849711 2.434506537 -0.4677419489 -0.3533693203 0.8101528206 0
-1.439381031 -0.8452817798 2.493081079 -0.4792997276 -0.2847579394 0.8301714805 0
-1.46585889 -0.6377566048 2.538942074 -0.4884123172 -0.2140411961 0.8459549484 0
-1.48487458 -0.4269857661 2.571878215 -0.4948374449 -0.1433304292 0.8570835964 0
-1.496322909 -0.2140384041 2.591707303 -0.4987074932 -0.071856415 0.8637867166 0
-1.500145515 0 2.59832825 -0.4999999999 0 0.8660254038 0
-1.496322909 0.2140384041 2.591707303 -0.4987074932 0.071856415 0.8637867166 0
-1.48487458 0.4269857661 2.571878215 -0.4948374449 0.1433304292 0.8570835964 0
-1.46585889 0.6377566048 2.538942074 -0.4884123172 0.2140411961 0.8459549484 0
-1.439381031 0.8452817798 2.493081079 -0.4792997276 0.2847579394 0.8301714805 0
-1.405563004 1.04849711 2.434506537 -0.4677419489 0.3533693203 0.8101528206 0
-1.364584669 1.2463718 2.363529977 -0.4536008474 0.4206959536 0.7856597138 0
-1.316651726 1.437894646 2.280507685 -0.4373290742 0.4847402638 0.7574761762 0
-1.262002268 1.622081585 2.185852047 -0.4187706625 0.5463739827 0.7253320641 0
-1.200932187 1.798016259 2.080075564 -0.3977908319 0.6058463632 0.6889939319 0
-1.133738462 1.964783234 1.963692617 -0.3751801892 0.6610289725 0.6498311497 0
-1.060760868 2.121525704 1.837291718 -0.3500879405 0.7139704024 0.6063701002 0
-0.9823869485 2.267475083 1.701544108 -0.323128569 0.7631197228 0.5596750992 0
-0.8990029035 2.401861673 1.557118705 -0.2938109576 0.8091356404 0.5088955066 0
-0.8110360501 2.524002446 1.404755646 -0.2630917868 0.8503710053 0.455688342 0
-0.7189398298 2.633291428 1.245240313 -0.2311982521 0.8866732615 0.4004471195 0
-0.6231766831 2.729149047 1.079373677 -0.1967640036 0.9193126277 0.3408052514 0
-0.5242382012 2.811097057 0.9080071996 -0.160237841 0.9472567431 0.2775400819 0
-0.4226240441 2.878687415 0.7320063169 -0.1175218759 0.9719847914 0.2035538601 0
-0.3188655751 2.931639141 0.5522913769 -0.08748062628 0.9845753197 0.1515208894 0
-0.2134861342 2.969680833 0.3697688312 -0.06357398791 0.9918837594 0.1101133771 0
-0.1070146821 2.992516215 0.1853548666 0.03685012462 -0.9972804386 -0.06382628811 0
-9.184850994e-17 3.000082807 1.590862858e-16 -0 -1 -0 0
-1.027220699e-16 -3.000082807 1.507183592e-16 -0 1 -1.110223025e-16 0
-0.1196837017 -2.992516215 0.1774383846 0.04121265638 0.9972804386 -0.06110027573 0
-0.2387598625 -2.969680833 0.353976053 -0.07110024577 -0.9918837594 0.1054104492 0
-0.3566147335 -2.931639141 0.5287030848 -0.09783709082 -0.9845753197 0.1450494521 0
-0.4726567326 -2.878687415 0.7007424232 -0.131434798 -0.9719847914 0.1948601015 0
-0.5863005636 -2.811097057 0.8692263314 -0.1792077271 -0.9472567431 0.2656863814 0
-0.6969519576 -2.729149047 1.033273769 -0.220058069 -0.9193126277 0.3262495039 0
-0.8040521017 -2.633291428 1.192056263 -0.2585688438 -0.8866732615 0.3833440756 0
-0.9070512074 -2.524002446 1.344758717 -0.2942381203 -0.8503710053 0.4362259528 0
-1.005432088 -2.401861673 1.49061437 -0.328594005 -0.8091356404 0.4871606464 0
-1.098687621 -2.267475082 1.628871383 -0.3613824055 -0.7631197227 0.5357714492 0
-1.186339899 -2.121525704 1.75882123 -0.3915333838 -0.7139704025 0.5804721128 0
-1.267957004 -1.964783234 1.879823564 -0.4195961985 -0.6610289725 0.6220769467 0
-1.343105513 -1.798016259 1.99123581 -0.4448836208 -0.6058463631 0.6595670915 0
-1.411405425 -1.622081585 2.092494593 -0.4683471653 -0.5463739827 0.694353227 0
-1.472524603 -1.437894646 2.183107502 -0.4891026294 -0.4847402638 0.7251244683 0
-1.526132126 -1.2463718 2.262583922 -0.5073007496 -0.4206959535 0.7521042907 0
-1.571961715 -1.04849711 2.330529083 -0.5231159569 -0.3533693204 0.7755513001 0
-1.609783317 -0.8452817799 2.386601913 -0.5360420126 -0.2847579395 0.7947149657 0
-1.639395778 -0.6377566048 2.430504192 -0.5462334033 -0.2140411962 0.8098243238 0
-1.660662655 -0.4269857662 2.462033634 -0.5534191752 -0.1433304292 0.8204776686 0
-1.673466304 -0.2140384041 2.481015825 -0.5577473822 -0.071856415 0.8268944995 0
-1.677741451 6.474521572e-18 2.487353992 -0.5591929033 -0 0.8290375727 0
-1.673466304 0.2140384041 2.481015825 -0.5577473822 0.071856415 0.8268944995 0
-1.660662655 0.4269857662 2.462033634 -0.5534191752 0.1433304292 0.8204776686 0
-1.639395778 0.6377566048 2.430504192 -0.5462334033 0.2140411962 0.8098243238 0
-1.609783317 0.8452817799 2.386601913 -0.5360420126 0.2847579395 0.7947149657 0
-1.571961715 1.04849711 2.330529083 -0.5231159569 0.3533693204 0.7755513001 0
-1.526132126 1.2463718 2.262583922 -0.5073007496 0.4206959535 0.7521042907 0
-1.472524603 1.437894646 2.183107502 -0.4891026294 0.4847402638 0.7251244683 0
-1.411405425 1.622081585 2.092494593 -0.4683471653 0.5463739827 0.694353227 0
-1.343105513 1.798016259 1.99123581 -0.4448836208 0.6058463631 0.6595670915 0
-1.267957004 1.964783234 1.879823564 -0.4195961985 0.6610289725 0.6220769467 0
-1.186339899 2.121525704 1.75882123 -0.3915333838 0.7139704025 0.5804721128 0
-1.098687621 2.267475082 1.628871383 -0.3613824055 0.7631197227 0.5357714492 0
-1.005432088 2.401861673 1.49061437 -0.328594005 0.8091356404 0.4871606464 0
-0.9070512074 2.524002446 1.344758717 -0.2942381203 0.8503710053 0.4362259528 0
-0.8040521017 2.633291428 1.192056263 -0.2585688438 0.8866732615 0.3833440756 0
-0.6969519576 2.729149047 1.033273769 -0.220058069 0.9193126277 0.3262495039 0
-0.5863005636 2.811097057 0.8692263314 -0.1792077271 0.9472567431 0.2656863814 0
-0.4726567326 2.878687415 0.7007424232 -0.131434798 0.9719847914 0.1948601015 0
-0.3566147335 2.931639141 0.5287030848 -0.09783709082 0.9845753197 0.1450494521 0
-0.2387598625 2.969680833 0.353976053 -0.07110024577 0.9918837594 0.1054104492 0
-0.1196837017 2.992516215 0.1774383846 0.04121265638 -0.9972804386 -0.06110027573 0
-1.027220699e-16 3.000082807 1.499270764e-16 -0 -1 -1.110223025e-16 0
-1.130951783e-16 -3.000082807 1.447644205e-16 -0 1 -1.110223025e-16 0
-0.1317696341 -2.992516215 0.1686574406 0.04537440418 0.9972804386 -0.05807658894 0
-0.2628703767 -2.969680833 0.3364587391 -0.07828011038 -0.9918837594 0.1001939723 0
-0.3926265008 -2.931639141 0.5025390043 -0.1077169029 -0.9845753197 0.1378713485 0
-0.520386685 -2.878687415 0.666064583 -0.144707383 -0.9719847914 0.185217004 0
-0.6455065287 -2.811097057 0.82621068 -0.1973045312 -0.9472567431 0.2525382837 0
-0.7673317522 -2.729149047 0.9821398554 -0.2422800335 -0.9193126277 0.3101043016 0
-0.8852471125 -2.633291428 1.133064635 -0.284679714 -0.8866732615 0.364373418 0
-0.9986473024 -2.524002446 1.278210258 -0.3239509553 -0.8503710053 0.4146383145 0
-1.106962908 -2.401861673 1.416847911 -0.3617761754 -0.8091356404 0.4630523884 0
-1.209635597 -2.267475083 1.548262959 -0.3978756232 -0.7631197228 0.5092575744 0
-1.306139201 -2.121525704 1.671781942 -0.4310713159 -0.7139704024 0.5517461238 0
-1.395998188 -1.964783234 1.786796199 -0.4619679776 -0.6610289725 0.5912920472 0
-1.478735364 -1.798016259 1.892694956 -0.4898089809 -0.6058463632 0.6269269068 0
-1.553932356 -1.622081586 1.988942716 -0.5156419276 -0.5463739827 0.6599915708 0
-1.621223488 -1.437894646 2.075071437 -0.538493326 -0.4847402638 0.6892400268 0
-1.680244421 -1.2463718 2.150614786 -0.5585291337 -0.4206959536 0.714884691 0
-1.730701986 -1.04849711 2.215197525 -0.5759413966 -0.3533693204 0.7371713716 0
-1.772342899 -0.8452817798 2.268495463 -0.5901727547 -0.2847579395 0.7553866795 0
-1.804945694 -0.6377566047 2.310225138 -0.6013932953 -0.2140411961 0.7697483165 0
-1.828360149 -0.4269857661 2.340194273 -0.6093047028 -0.1433304291 0.779874456 0
-1.842456739 -0.2140384041 2.358237087 -0.614069982 -0.07185641494 0.7859737355 0
-1.847163601 -6.154115092e-18 2.364261595 -0.6156614753 0 0.7880107537 0
-1.842456739 0.2140384041 2.358237087 -0.614069982 0.07185641494 0.7859737355 0
-1.828360149 0.4269857661 2.340194273 -0.6093047028 0.1433304291 0.779874456 0
-1.804945694 0.6377566047 2.310225138 -0.6013932953 0.2140411961 0.7697483165 0
-1.772342899 0.8452817798 2.268495463 -0.5901727547 0.2847579395 0.7553866795 0
-1.730701986 1.04849711 2.215197525 -0.5759413966 0.3533693204 0.7371713716 0
-1.680244421 1.2463718 2.150614786 -0.5585291337 0.4206959536 0.714884691 0
-1.621223488 1.437894646 2.075071437 -0.538493326 0.4847402638 0.6892400268 0
-1.553932356 1.622081586 1.988942716 -0.5156419276 0.5463739827 0.6599915708 0
-1.478735364 1.798016259 1.892694956 -0.4898089809 0.6058463632 0.6269269068 0
-1.395998188 1.964783234 1.786796199 -0.4619679776 0.6610289725 0.5912920472 0
-1.306139201 2.121525704 1.671781942 -0.4310713159 0.7139704024 0.5517461238 0
-1.209635597 2.267475083 1.548262959 -0.3978756232 0.7631197228 0.5092575744 0
-1.106962908 2.401861673 1.416847911 -0.3617761754 0.8091356404 0.4630523884 0
-0.9986473024 2.524002446 1.278210258 -0.3239509553 0.8503710053 0.4146383145 0
-0.8852471125 2.633291428 1.133064635 -0.284679714 0.8866732615 0.364373418 0
-0.7673317522 2.729149047 0.9821398554 -0.2422800335 0.9193126277 0.3101043016 0
-0.6455065287 2.811097057 0.82621068 -0.1973045312 0.9472567431 0.2525382837 0
-0.520386685 2.878687415 0.666064583 -0.144707383 0.9719847914 0.185217004 0
-0.3926265008 2.931639141 0.5025390043 -0.1077169029 0.9845753197 0.1378713485 0
-0.2628703767 2.969680833 0.3364587391 -0.07828011038 0.9918837594 0.1001939723 0
-0.1317696341 2.992516215 0.1686574406 0.04537440418 -0.9972804386 -0.05807658894 0
-1.130951783e-16 3.000082807 1.447598238e-16 -0 -1 -5.551115123e-17 0
-1.229172983e-16 -3.000082807 1.365088931e-16 -0 1 5.551115123e-17 0
-0.1432135983 -2.992516215 0.1590548145 0.04931509246 0.9972804386 -0.05476995885 0
-0.2857002129 -2.969680833 0.317302232 0.08507860216 0.9918837594 -0.09448936031 0
-0.4267254313 -2.931639141 0.4739266043 -0.117071929 -0.9845753197 0.1300215495 0
-0.5655813658 -2.878687415 0.628141743 -0.1572749682 -0.9719847914 0.174671548 0
-0.7015676508 -2.811097057 0.779169813 -0.2144400874 -0.9472567431 0.2381598448 0
-0.8339731837 -2.729149047 0.9262210548 -0.2633216341 -0.9193126277 0.2924483023 0
-0.9621292885 -2.633291428 1.068552829 -0.3094036533 -0.8866732615 0.3436275696 0
-1.085378088 -2.524002446 1.205434488 -0.3520855338 -0.8503710053 0.3910306001 0
-1.203100716 -2.401861673 1.336178712 -0.3931958086 -0.8091356404 0.4366881858 0
-1.314690349 -2.267475083 1.460111555 -0.4324304308 -0.7631197228 0.4802626482 0
-1.419575126 -2.121525704 1.5765979 -0.468509112 -0.7139704024 0.5203320828 0
-1.517238208 -1.964783234 1.685063742 -0.502089095 -0.6610289725 0.5576264324 0
-1.607160965 -1.798016259 1.784933081 -0.5323480414 -0.6058463632 0.5912323968 0
-1.688888685 -1.622081585 1.87570091 -0.5604245346 -0.5463739826 0.6224145018 0
-1.762023935 -1.437894646 1.956925835 -0.5852605371 -0.4847402638 0.6499976772 0
-1.826170734 -1.2463718 2.02816807 -0.60703642 -0.4206959536 0.674182245 0
-1.881010451 -1.04849711 2.089073748 -0.6259609078 -0.3533693204 0.6952000182 0
-1.926267806 -0.8452817799 2.139337131 -0.6414282348 -0.2847579395 0.712378225 0
-1.961702096 -0.6377566046 2.178690898 -0.6536232598 -0.2140411961 0.7259221726 0
-1.987150056 -0.4269857661 2.206953721 -0.6622217593 -0.1433304291 0.7354717735 0
-2.002470911 -0.2140384041 2.223969254 -0.6674008948 -0.07185641487 0.7412237862 0
-2.007586556 0 2.229650753 -0.6691306064 0 0.7431448255 0
-2.002470911 0.2140384041 2.223969254 -0.6674008948 0.07185641487 0.7412237862 0
-1.987150056 0.4269857661 2.206953721 -0.6622217593 0.1433304291 0.7354717735 0
-1.961702096 0.6377566046 2.178690898 -0.6536232598 0.2140411961 0.7259221726 0
-1.926267806 0.8452817799 2.139337131 -0.6414282348 0.2847579395 0.712378225 0
-1.881010451 1.04849711 2.089073748 -0.6259609078 0.3533693204 0.6952000182 0
-1.826170734 1.2463718 2.02816807 -0.60703642 0.4206959536 0.674182245 0
-1.762023935 1.437894646 1.956925835 -0.5852605371 0.4847402638 0.6499976772 0
-1.688888685 1.622081585 1.87570091 -0.5604245346 0.5463739826 0.6224145018 0
-1.607160965 1.798016259 1.784933081 -0.5323480414 0.6058463632 0.5912323968 0
-1.517238208 1.964783234 1.685063742 -0.502089095 0.6610289725 0.5576264324 0
-1.419575126 2.121525704 1.5765979 -0.468509112 0.7139704024 0.5203320828 0
-1.314690349 2.267475083 1.460111555 -0.4324304308 0.7631197228 0.4802626482 0
-1.203100716 2.401861673 1.336178712 -0.3931958086 0.8091356404 0.4366881858 0
-1.085378088 2.524002446 1.205434488 -0.3520855338 0.8503710053 0.3910306001 0
-0.9621292885 2.633291428 1.068552829 -0.3094036533 0.8866732615 0.3436275696 0
-0.8339731837 2.729149047 0.9262210548 -0.2633216341 0.9193126277 0.2924483023 0
-0.7015676508 2.811097057 0.779169813 -0.2144400874 0.9472567431 0.2381598448 0
-0.5655813658 2.878687415 0.628141743 -0.1572749682 0.9719847914 0.174671548 0
-0.4267254313 2.931639141 0.4739266043 -0.117071929 0.9845753197 0.1300215495 0
-0.2857002129 2.969680833 0.317302232 0.08507860216 -0.9918837594 -0.09448936031 0
-0.1432135983 2.992516215 0.1590548145 0.04931509246 -0.9972804386 -0.05476995885 0
-1.229172983e-16 3.000082807 1.380960554e-16 -0 -1 -0 0
-1.321405776e-16 -3.000082807 1.268153897e-16 -0 1 0 0
-0.1539598402 -2.992516215 0.1486772895 0.05301552258 0.9972804386 -0.05119649506 0
-0.3071381463 -2.969680833 0.2965998602 0.09146259953 0.9918837594 -0.08832440568 0
-0.4587453983 -2.931639141 0.4430052817 -0.1258565925 -0.9845753197 0.1215382986 0
-0.608020591 -2.878687415 0.5871586595 -0.1690763255 -0.9719847914 0.1632751097 0
-0.7542108059 -2.811097057 0.7283329091 -0.2305309131 -0.9472567431 0.222621115 0
-0.8965515816 -2.729149047 0.8657897984 -0.2830803582 -0.9193126277 0.2733675243 0
-1.034324067 -2.633291428 0.9988351413 -0.3326202091 -0.8866732616 0.3212076022 0
-1.166821021 -2.524002446 1.126785962 -0.3785047869 -0.8503710053 0.3655178239 0
-1.293377138 -2.401861673 1.248999784 -0.4226998314 -0.8091356404 0.4081964822 0
-1.413340063 -2.267475083 1.364846634 -0.4648784809 -0.7631197228 0.4489279304 0
-1.526095021 -2.121525704 1.473732832 -0.5036643785 -0.7139704024 0.4863830365 0
-1.631086397 -1.964783234 1.575121824 -0.5397640849 -0.6610289726 0.5212441175 0
-1.727756639 -1.798016259 1.668475192 -0.5722935554 -0.6058463632 0.5526574623 0
-1.815616918 -1.622081585 1.753320878 -0.6024768095 -0.5463739827 0.581805092 0
-1.894239979 -1.437894646 1.829246285 -0.6291764179 -0.4847402639 0.6075886041 0
-1.963200126 -1.2463718 1.895840324 -0.6525862859 -0.4206959536 0.6301952508 0
-2.022154822 -1.04849711 1.952772213 -0.6729308003 -0.3533693204 0.6498417202 0
-2.070808128 -0.8452817798 1.999756164 -0.6895587408 -0.2847579395 0.6658991357 0
-2.108901283 -0.6377566048 2.036542296 -0.7026688374 -0.2140411961 0.6785594088 0
-2.136258767 -0.4269857661 2.062961112 -0.7119125378 -0.1433304291 0.6874859465 0
-2.152729245 -0.2140384041 2.078866468 -0.7174802973 -0.07185641486 0.6928626693 0
-2.15822875 0 2.084177277 -0.7193398004 0 0.6946583704 0
-2.152729245 0.2140384041 2.078866468 -0.7174802973 0.07185641486 0.6928626693 0
-2.136258767 0.4269857661 2.062961112 -0.7119125378 0.1433304291 0.6874859465 0
-2.108901283 0.6377566048 2.036542296 -0.7026688374 0.2140411961 0.6785594088 0
-2.070808128 0.8452817798 1.999756164 -0.6895587408 0.2847579395 0.6658991357 0
-2.022154822 1.04849711 1.952772213 -0.6729308003 0.3533693204 0.6498417202 0
-1.963200126 1.2463718 1.895840324 -0.6525862859 0.4206959536 0.6301952508 0
-1.894239979 1.437894646 1.829246285 -0.6291764179 0.4847402639 0.6075886041 0
-1.815616918 1.622081585 1.753320878 -0.6024768095 0.5463739827 0.581805092 0
-1.727756639 1.798016259 1.668475192 -0.5722935554 0.6058463632 0.5526574623 0
-1.631086397 1.964783234 1.575121824 -0.5397640849 0.6610289726 0.5212441175 0
-1.526095021 2.121525704 1.473732832 -0.5036643785 0.7139704024 0.4863830365 0
-1.413340063 2.267475083 1.364846634 -0.4648784809 0.7631197228 0.4489279304 0
-1.293377138 2.401861673 1.248999784 -0.4226998314 0.8091356404 0.4081964822 0
-1.166821021 2.524002446 1.126785962 -0.3785047869 0.8503710053 0.3655178239 0
-1.034324067 2.633291428 0.9988351413 -0.3326202091 0.8866732616 0.3212076022 0
-0.8965515816 2.729149047 0.8657897984 -0.2830803582 0.9193126277 0.2733675243 0
-0.7542108059 2.811097057 0.7283329091 -0.2305309131 0.9472567431 0.222621115 0
-0.608020591 2.878687415 0.5871586595 -0.1690763255 0.9719847914 0.1632751097 0
-0.4587453983 2.931639141 0.4430052817 -0.1258565925 0.9845753197 0.1215382986 0
-0.3071381463 2.969680833 0.2965998602 0.09146259953 -0.9918837594 -0.08832440568 0
-0.1539598402 2.992516215 0.1486772895 0.05301552258 -0.9972804386 -0.05119649506 0
-1.321405776e-16 3.000082807 1.283979553e-16 -0 -1 -0 0
-1.407235914e-16 -3.000082807 1.164956022e-16 4.243973879e-17 1 -0 0
-0.1639560052 -2.992516215 0.1375754234 0.05645766639 0.9972804386 -0.04737360704 0
-0.3270797336 -2.969680833 0.2744524838 0.09740100033 0.9918837594 -0.08172914344 0
-0.4885304039 -2.931639141 0.4099256817 -0.1340280953 -0.9845753197 0.1124629253 0
-0.647497601 -2.878687415 0.5433149981 -0.18005396 -0.9719847914 0.1510832114 0
-0.8031795218 -2.811097057 0.6739476404 -0.2454986153 -0.9472567431 0.2059977976 0
-0.9547620704 -2.729149047 0.8011405011 -0.3014599432 -0.9193126277 0.2529549271 0
-1.101479723 -2.633291428 0.9242512295 -0.3542162726 -0.8866732616 0.2972227438 0
-1.242579319 -2.524002446 1.042647848 -0.4030800028 -0.8503710053 0.3382242815 0
-1.377352357 -2.401861673 1.155735854 -0.4501445031 -0.8091356404 0.3777160863 0
-1.505104126 -2.267475082 1.262932317 -0.4950616896 -0.7631197227 0.4154060811 0
-1.625179936 -2.121525704 1.363687885 -0.536365843 -0.7139704024 0.4500643809 0
-1.736988096 -1.964783234 1.457506071 -0.5748093982 -0.6610289727 0.4823223539 0
-1.839934857 -1.798016259 1.54388866 -0.6094509128 -0.6058463633 0.5113900361 0
-1.933499648 -1.622081585 1.622398843 -0.6415938779 -0.5463739827 0.5383611863 0
-2.017227476 -1.437894647 1.692654831 -0.6700270143 -0.4847402639 0.5622194204 0
-2.090665005 -1.2463718 1.754276235 -0.694956817 -0.4206959536 0.5831380087 0
-2.153447458 -1.04849711 1.806956968 -0.7166222418 -0.3533693205 0.6013174585 0
-2.205259682 -0.8452817798 1.850432586 -0.734329786 -0.2847579395 0.6161758525 0
-2.245826114 -0.6377566048 1.884471865 -0.748291083 -0.2140411962 0.6278907719 0
-2.274959841 -0.4269857661 1.908917964 -0.7581349501 -0.143330429 0.6361507569 0
-2.292499699 -0.2140384041 1.923635652 -0.764064208 -0.07185641484 0.6411259951 0
-2.29835627 0 1.928549899 -0.7660444432 0 0.6427876096 0
-2.292499699 0.2140384041 1.923635652 -0.764064208 0.07185641484 0.6411259951 0
-2.274959841 0.4269857661 1.908917964 -0.7581349501 0.143330429 0.6361507569 0
-2.245826114 0.6377566048 1.884471865 -0.748291083 0.2140411962 0.6278907719 0
-2.205259682 0.8452817798 1.850432586 -0.734329786 0.2847579395 0.6161758525 0
-2.153447458 1.04849711 1.806956968 -0.7166222418 0.3533693205 0.6013174585 0
-2.090665005 1.2463718 1.754276235 -0.694956817 0.4206959536 0.5831380087 0
-2.017227476 1.437894647 1.692654831 -0.6700270143 0.4847402639 0.5622194204 0
-1.933499648 1.622081585 1.622398843 -0.6415938779 0.5463739827 0.5383611863 0
-1.839934857 1.798016259 1.54388866 -0.6094509128 0.6058463633 0.5113900361 0
-1.736988096 1.964783234 1.457506071 -0.5748093982 0.6610289727 0.4823223539 0
-1.625179936 2.121525704 1.363687885 -0.536365843 0.7139704024 0.4500643809 0
-1.505104126 2.267475082 1.262932317 -0.4950616896 0.7631197227 0.4154060811 0
-1.377352357 2.401861673 1.155735854 -0.4501445031 0.8091356404 0.3777160863 0
-1.242579319 2.524002446 1.042647848 -0.4030800028 0.8503710053 0.3382242815 0
-1.101479723 2.633291428 0.9242512295 -0.3542162726 0.8866732616 0.2972227438 0
-0.9547620704 2.729149047 0.8011405011 -0.3014599432 0.9193126277 0.2529549271 0
-0.8031795218 2.811097057 0.6739476404 -0.2454986153 0.9472567431 0.2059977976 0
-0.647497601 2.878687415 0.5433149981 -0.18005396 0.9719847914 0.1510832114 0
-0.4885304039 2.931639141 0.4099256817 -0.1340280953 0.9845753197 0.1124629253 0
-0.3270797336 2.969680833 0.2744524838 0.09740100033 -0.9918837594 -0.08172914344 0
-0.1639560052 2.992516215 0.1375754234 0.05645766639 -0.9972804386 -0.04737360704 0
-1.40723574e-16 3.000082807 1.188786442e-16 4.243635066e-17 -1 -1.110223025e-16 0
-1.486175307e-16 -3.000082807 1.079835922e-16 4.243804472e-17 1 -1.110223025e-16 0
-0.173153393 -2.992516215 0.1258033039 0.05962475412 0.9972804386 -0.0433199196 0
-0.3454278213 -2.969680833 0.2509680026 0.1028648732 0.9918837594 -0.07473570506 0
-0.5159353384 -2.931639141 0.374848965 -0.1415466267 -0.9845753197 0.102839644 0
-0.6838200678 -2.878687415 0.4968243608 -0.1901543897 -0.9719847914 0.138155251 0
-0.8482352277 -2.811097057 0.6162789666 -0.259270273 -0.9472567431 0.1883708796 0
-1.008321055 -2.729149047 0.7325881278 -0.3183708457 -0.9193126277 0.2313099591 0
-1.16326908 -2.633291428 0.8451644585 -0.3740866301 -0.8866732616 0.271789846 0
-1.312283896 -2.524002446 0.9534300587 -0.4256914535 -0.8503710053 0.3092829446 0
-1.454617254 -2.401861673 1.056841297 -0.475396116 -0.8091356403 0.3453954957 0
-1.589535473 -2.267475083 1.154865121 -0.5228330076 -0.7631197228 0.3798604149 0
-1.716347138 -2.121525704 1.246999188 -0.5664541868 -0.7139704025 0.4115530568 0
-1.834427364 -1.964783234 1.332789495 -0.6070542979 -0.6610289726 0.4410507644 0
-1.943149097 -1.798016259 1.411780457 -0.6436390867 -0.6058463632 0.4676311691 0
-2.041962563 -1.622081585 1.483572642 -0.6775851654 -0.5463739827 0.4922944389 0
-2.130387244 -1.437894646 1.547816934 -0.7076133063 -0.4847402639 0.5141111605 0
-2.207944374 -1.2463718 1.604165487 -0.7339415882 -0.4206959536 0.5332397769 0
-2.274248715 -1.04849711 1.65233841 -0.7568223715 -0.3533693205 0.5498636389 0
-2.328967432 -0.8452817798 1.692093886 -0.7755232502 -0.2847579395 0.5634506228 0
-2.371809507 -0.6377566047 1.723220475 -0.7902677298 -0.2140411961 0.5741631141 0
-2.402577539 -0.4269857661 1.745574759 -0.8006638051 -0.143330429 0.5817163049 0
-2.421101325 -0.2140384041 1.759033078 -0.8069256746 -0.0718564148 0.5862658196 0
-2.42728643 0 1.76352682 -0.8090169944 0 0.5877852522 0
-2.421101325 0.2140384041 1.759033078 -0.8069256746 0.0718564148 0.5862658196 0
-2.402577539 0.4269857661 1.745574759 -0.8006638051 0.143330429 0.5817163049 0
-2.371809507 0.6377566047 1.723220475 -0.7902677298 0.2140411961 0.5741631141 0
-2.328967432 0.8452817798 1.692093886 -0.7755232502 0.2847579395 0.5634506228 0
-2.274248715 1.04849711 1.65233841 -0.7568223715 0.3533693205 0.5498636389 0
-2.207944374 1.2463718 1.604165487 -0.7339415882 0.4206959536 0.5332397769 0
-2.130387244 1.437894646 1.547816934 -0.7076133063 0.4847402639 0.5141111605 0
-2.041962563 1.622081585 1.483572642 -0.6775851654 0.5463739827 0.4922944389 0
-1.943149097 1.798016259 1.411780457 -0.6436390867 0.6058463632 0.4676311691 0
-1.834427364 1.964783234 1.332789495 -0.6070542979 0.6610289726 0.4410507644 0
-1.716347138 2.121525704 1.246999188 -0.5664541868 0.7139704025 0.4115530568 0
-1.589535473 2.267475083 1.154865121 -0.5228330076 0.7631197228 0.3798604149 0
-1.454617254 2.401861673 1.056841297 -0.475396116 0.8091356403 0.3453954957 0
-1.312283896 2.524002446 0.9534300587 -0.4256914535 0.8503710053 0.3092829446 0
-1.16326908 2.633291428 0.8451644585 -0.3740866301 0.8866732616 0.271789846 0
-1.008321055 2.729149047 0.7325881278 -0.3183708457 0.9193126277 0.2313099591 0
-0.8482352277 2.811097057 0.6162789666 -0.259270273 0.9472567431 0.1883708796 0
-0.6838200678 2.878687415 0.4968243608 -0.1901543897 0.9719847914 0.138155251 0
-0.5159353384 2.931639141 0.374848965 -0.1415466267 0.9845753197 0.102839644 0
-0.3454278213 2.969680833 0.2509680026 0.1028648732 -0.9918837594 -0.07473570506 0
-0.173153393 2.992516215 0.1258033039 0.05962475412 -0.9972804386 -0.0433199196 0
-1.486175059e-16 3.000082807 1.079743988e-16 4.243465659e-17 -1 -0 0
-1.55787438e-16 -3.000082807 9.416107105e-17 4.281582142e-17 1 2.220446049e-16 0
-0.1815071949 -2.992516215 0.1134182832 0.06250135607 0.9972804386 -0.03905518185 0
-0.3620930194 -2.969680833 0.2262608304 0.1078275988 0.9918837594 -0.0673781618 0
-0.5408266878 -2.931639141 0.3379460219 0.1483755571 0.9845753197 -0.09271533824 0
-0.716811032 -2.878687415 0.447913245 -0.1993284063 -0.9719847914 0.1245542121 0
-0.8891584169 -2.811097057 0.5556078437 -0.271778792 -0.9472567431 0.1698262376 0
-1.0569676 -2.729149047 0.6604666588 -0.3337306774 -0.9193126277 0.2085380721 0
-1.219391108 -2.633291428 0.7619601313 -0.3921344752 -0.8866732616 0.2450328154 0
-1.375595157 -2.524002446 0.8595672539 -0.4462289781 -0.8503710053 0.2788348122 0
-1.524795401 -2.401861673 0.9527979143 -0.4983316466 -0.8091356404 0.311392173 0
-1.666222763 -2.267475083 1.041171538 -0.5480571357 -0.7631197228 0.3424641072 0
-1.799152469 -2.121525703 1.124235237 -0.593782823 -0.7139704024 0.3710366878 0
-1.922929487 -1.964783234 1.201579702 -0.6363416903 -0.6610289726 0.3976304196 0
-2.03689651 -1.798016259 1.272794202 -0.6746915155 -0.6058463632 0.4215940501 0
-2.140477241 -1.622081585 1.337518626 -0.7102753261 -0.5463739827 0.4438292826 0
-2.233167979 -1.437894647 1.395438228 -0.7417521775 -0.4847402639 0.4634982025 0
-2.314466861 -1.2463718 1.446239407 -0.7693506699 -0.4206959536 0.4807436545 0
-2.38397006 -1.04849711 1.489669827 -0.7933353386 -0.3533693205 0.495730939 0
-2.441328687 -0.8452817797 1.525511475 -0.8129384432 -0.2847579395 0.507980318 0
-2.486237682 -0.6377566047 1.553573729 -0.8283942715 -0.2140411961 0.5176381915 0
-2.518490121 -0.4269857661 1.57372729 -0.8392919064 -0.143330429 0.5244477896 0
-2.537907588 -0.2140384041 1.58586067 -0.8458558805 -0.07185641479 0.5285494159 0
-2.544391095 2.01349272e-19 1.589912015 -0.8480480961 -1.110223025e-16 0.5299192643 0
-2.537907588 0.2140384041 1.58586067 -0.8458558805 0.07185641479 0.5285494159 0
-2.518490121 0.4269857661 1.57372729 -0.8392919064 0.143330429 0.5244477896 0
-2.486237682 0.6377566047 1.553573729 -0.8283942715 0.2140411961 0.5176381915 0
-2.441328687 0.8452817797 1.525511475 -0.8129384432 0.2847579395 0.507980318 0
-2.38397006 1.04849711 1.489669827 -0.7933353386 0.3533693205 0.495730939 0
-2.314466861 1.2463718 1.446239407 -0.7693506699 0.4206959536 0.4807436545 0
-2.233167979 1.437894647 1.395438228 -0.7417521775 0.4847402639 0.4634982025 0
