# .PCD v0.7 - Point Cloud Data file format
VERSION 0.7
FIELDS x y z normal_x normal_y normal_z rgb
SIZE 4 4 4 4 4 4 4
TYPE F F F F F F F
COUNT 1 1 1 1 1 1 1
WIDTH 591
HEIGHT 1
VIEWPOINT 0 0 0 1 0 0 0
POINTS 591
DATA ascii
-1.678155781e-16 3.000215321 7.471630921e-17 0 1 0 0
-1.72618734e-16 -3.000215321 6.28400338e-17 -0 1 -5.551115123e-17 0
-0.201138047 -2.992730818 0.07320826208 0.07277618337 0.9969964863 -0.02648836451 0
-0.4012719868 -2.970020696 0.1460510591 0.1340929298 0.9897661727 -0.04880583507 0
-0.5993469374 -2.932020259 0.2181444452 -0.1841175117 -0.9806171324 0.06701329389 0
-0.7943534572 -2.879016646 0.2891210139 0.2298076353 0.9696351252 -0.08364313888 0
-0.985348116 -2.811419792 0.3586373846 0.3011114515 0.9472701289 -0.1095956055 0
-1.171321856 -2.72948003 0.4263262901 0.3693369847 0.919521285 -0.1344276688 0
-1.351335689 -2.633637512 0.4918459674 0.4358861671 0.885908323 -0.1586495904 0
-1.524427735 -2.524312831 0.5548463197 0.4923041009 0.8517803428 -0.179184039 0
-1.689786826 -2.402177469 0.6150321071 0.550771863 0.8102248537 -0.2004645641 0
-1.846530811 -2.267782338 0.672082252 0.609578582 0.7610442426 -0.2218684593 0
-1.993822041 -2.12178838 0.7256918755 0.6592343573 0.712627568 -0.2399416836 0
-2.131029681 -1.965059505 0.7756313722 0.7073069937 0.6583632253 -0.2574386923 0
-2.25732563 -1.798270362 0.8215993386 0.746502097 0.6073806552 -0.2717045432 0
-2.372081151 -1.622284952 0.8633669321 0.7869284773 0.5465418467 -0.2864185424 0
-2.474837084 -1.4380972 0.9007670333 0.8211974275 0.4861056511 -0.2988914202 0
-2.564925207 -1.246545759 0.9335564284 0.8505828413 0.4250468456 -0.3095868362 0
-2.641941888 -1.048638496 0.9615882079 0.8783068783 0.3555042685 -0.3196775604 0
-2.705513898 -0.8453976484 0.9847265274 0.9003108328 0.2864647687 -0.3276863448 0
-2.755219076 -0.6378264079 1.002817732 0.9183704888 0.2118164706 -0.334259522 0
-2.790970219 -0.4270339376 1.015830084 0.9301940765 0.1418242038 -0.3385629561 0
-2.81249439 -0.214063001 1.023664243 0.9373146568 0.07109675826 -0.3411546353 0
-2.819681382 0 1.026280093 -0.9396926208 0 0.3420201434 0
-2.81249439 0.214063001 1.023664243 0.9373146568 -0.07109675826 -0.3411546353 0
-2.790970219 0.4270339376 1.015830084 0.9301940765 -0.1418242038 -0.3385629561 0
-2.755219076 0.6378264079 1.002817732 0.9183704888 -0.2118164706 -0.334259522 0
-2.705513898 0.8453976484 0.9847265274 0.9003108328 -0.2864647687 -0.3276863448 0
-2.641941888 1.048638496 0.9615882079 0.8783068783 -0.3555042685 -0.3196775604 0
-2.564925207 1.246545759 0.9335564284 0.8505828413 -0.4250468456 -0.3095868362 0
-2.474837084 1.4380972 0.9007670333 0.8211974275 -0.4861056511 -0.2988914202 0
-2.372081151 1.622284952 0.8633669321 0.7869284773 -0.5465418467 -0.2864185424 0
-2.25732563 1.798270362 0.8215993386 0.746502097 -0.6073806552 -0.2717045432 0
-2.131029681 1.965059505 0.7756313722 0.7073069937 -0.6583632253 -0.2574386923 0
-1.993822041 2.12178838 0.7256918755 0.6592343573 -0.712627568 -0.2399416836 0
-1.846530811 2.267782338 0.672082252 0.609578582 -0.7610442426 -0.2218684593 0
-1.689786826 2.402177469 0.6150321071 0.550771863 -0.8102248537 -0.2004645641 0
-1.524427735 2.524312831 0.5548463197 0.4923041009 -0.8517803428 -0.179184039 0
-1.351335689 2.633637512 0.4918459674 0.4358861671 -0.885908323 -0.1586495904 0
-1.171321856 2.72948003 0.4263262901 0.3693369847 -0.919521285 -0.1344276688 0
-0.985348116 2.811419792 0.3586373846 0.3011114515 -0.9472701289 -0.1095956055 0
-0.7943534572 2.879016646 0.2891210139 0.2298076353 -0.9696351252 -0.08364313888 0
-0.5993469374 2.932020259 0.2181444452 -0.1841175117 0.9806171324 0.06701329389 0
-0.4012719868 2.970020696 0.1460510591 0.1340929298 -0.9897661727 -0.04880583507 0
-0.201138047 2.992730818 0.07320826208 0.07277618337 -0.9969964863 -0.02648836451 0
-1.72618734e-16 3.000215321 6.282808107e-17 0 1 0 0
-1.765839312e-16 -3.000215321 5.066856471e-17 1.404126517e-17 1 -8.67361738e-19 0
-0.205754835 -2.992730818 0.05899924954 0.07444663914 0.9969964863 -0.02134723026 0
-0.4104825152 -2.970020696 0.1177039671 0.1371708091 0.9897661727 -0.03933309657 0
-0.6131039456 -2.932020259 0.1758047275 -0.1883436218 -0.9806171324 0.0540066645 0
-0.8125865146 -2.879016646 0.2330054335 0.2350824859 0.9696351252 -0.06740881812 0
-1.007965137 -2.811419792 0.289029352 0.3080229621 0.9472701289 -0.0883241631 0
-1.198207593 -2.72948003 0.3435804985 0.3778144985 0.919521285 -0.1083365641 0
-1.382353344 -2.633637512 0.3963834428 0.4458912062 0.8859083231 -0.127857246 0
-1.559418428 -2.524312832 0.4471560387 0.5036041196 0.8517803428 -0.1444061576 0
-1.728573061 -2.402177469 0.4956603494 0.5634139115 0.8102248537 -0.1615563394 0
-1.888914843 -2.267782339 0.5416376154 0.6235704405 0.7610442426 -0.1788059466 0
-2.039586897 -2.12178838 0.5848421317 0.6743659813 0.712627568 -0.1933713335 0
-2.17994391 -1.965059505 0.6250888572 0.7235420448 0.6583632253 -0.2074723429 0
-2.309138771 -1.798270362 0.6621348877 0.7636368063 0.6073806552 -0.2189693307 0
-2.426528313 -1.622284952 0.6957957971 0.8049911066 0.5465418467 -0.2308274855 0
-2.531642838 -1.4380972 0.725936902 0.8400466433 0.4861056511 -0.2408794989 0
-2.623798782 -1.246545759 0.7523621939 0.8701065503 0.4250468456 -0.2494990385 0
-2.702583253 -1.048638496 0.7749532775 0.8984669462 0.3555042685 -0.2576312512 0
-2.767614452 -0.8453976485 0.7936006738 0.9209759648 0.2864647686 -0.2640856084 0
-2.818460529 -0.6378264078 0.8081805515 0.93945015 0.2118164706 -0.2693829958 0
-2.85503228 -0.4270339375 0.8186673325 0.9515451285 0.1418242038 -0.272851175 0
-2.877050503 -0.214063001 0.8249809565 0.9588291497 0.07109675828 -0.2749398346 0
-2.884402461 -1.890823294e-18 0.8270890962 -0.9612616959 -5.551115123e-17 0.2756373559 0
-2.877050503 0.214063001 0.8249809565 0.9588291497 -0.07109675828 -0.2749398346 0
-2.85503228 0.4270339375 0.8186673325 0.9515451285 -0.1418242038 -0.272851175 0
-2.818460529 0.6378264078 0.8081805515 0.93945015 -0.2118164706 -0.2693829958 0
-2.767614452 0.8453976485 0.7936006738 0.9209759648 -0.2864647686 -0.2640856084 0
-2.702583253 1.048638496 0.7749532775 0.8984669462 -0.3555042685 -0.2576312512 0
-2.623798782 1.246545759 0.7523621939 0.8701065503 -0.4250468456 -0.2494990385 0
-2.531642838 1.4380972 0.725936902 0.8400466433 -0.4861056511 -0.2408794989 0
-2.426528313 1.622284952 0.6957957971 0.8049911066 -0.5465418467 -0.2308274855 0
-2.309138771 1.798270362 0.6621348877 0.7636368063 -0.6073806552 -0.2189693307 0
-2.17994391 1.965059505 0.6250888572 0.7235420448 -0.6583632253 -0.2074723429 0
-2.039586897 2.12178838 0.5848421317 0.6743659813 -0.712627568 -0.1933713335 0
-1.888914843 2.267782339 0.5416376154 0.6235704405 -0.7610442426 -0.1788059466 0
-1.728573061 2.402177469 0.4956603494 0.5634139115 -0.8102248537 -0.1615563394 0
-1.559418428 2.524312832 0.4471560387 0.5036041196 -0.8517803428 -0.1444061576 0
-1.382353344 2.633637512 0.3963834428 0.4458912062 -0.8859083231 -0.127857246 0
-1.198207593 2.72948003 0.3435804985 0.3778144985 -0.919521285 -0.1083365641 0
-1.007965137 2.811419792 0.289029352 0.3080229621 -0.9472701289 -0.0883241631 0
-0.8125865146 2.879016646 0.2330054335 0.2350824859 -0.9696351252 -0.06740881812 0
-0.6131039456 2.932020259 0.1758047275 -0.1883436218 0.9806171324 0.0540066645 0
-0.4104825152 2.970020696 0.1177039671 0.1371708091 -0.9897661727 -0.03933309657 0
-0.205754835 2.992730818 0.05899924954 0.07444663914 -0.9969964863 -0.02134723026 0
-1.765839296e-16 3.000215321 5.063376083e-17 -1.404121223e-17 1 0 0
-1.796827992e-16 -3.000215321 3.805428951e-17 0 1 0 0
-0.2093692062 -2.992730818 0.04450279858 0.07575439838 0.9969964863 -0.01610209445 0
-0.4176932141 -2.970020696 0.08878343343 0.139580406 0.9897661727 -0.02966873118 0
-0.6238739731 -2.932020259 0.1326085067 -0.1916521407 -0.9806171324 0.04073692007 0
-0.8268607321 -2.879016646 0.1757546742 0.2392120382 0.9696351252 -0.05084608837 0
-1.025671452 -2.811419792 0.2180131974 0.3134338158 0.9472701289 -0.06662241421 0
-1.219255784 -2.72948003 0.2591608171 0.384451338 0.919521285 -0.08171765456 0
-1.406636312 -2.633637512 0.298989778 0.4537239083 0.885908323 -0.09644199392 0
-1.586811791 -2.524312832 0.3372872584 0.5124506296 0.8517803428 -0.1089247439 0
-1.758937863 -2.402177469 0.3738737842 0.5733110641 0.8102248537 -0.1218610286 0
-1.922096272 -2.267782339 0.4085541747 0.6345243266 0.7610442426 -0.1348723092 0
-2.075415091 -2.12178838 0.4411430959 0.686212162 0.712627568 -0.1458588978 0
-2.21823767 -1.965059505 0.4715009721 0.7362520717 0.6583632253 -0.156495209 0
-2.34970202 -1.798270362 0.4994445824 0.7770511538 0.6073806552 -0.1651673216 0
-2.469153673 -1.622284952 0.5248348151 0.8191319002 0.5465418467 -0.1741118604 0
-2.576114681 -1.4380972 0.547570079 0.8548032364 0.4861056511 -0.1816940369 0
-2.669889474 -1.246545759 0.5675025267 0.8853911876 0.4250468456 -0.1881957067 0
-2.750057904 -1.048638496 0.5845428524 0.9142497735 0.3555042685 -0.1943297885 0
-2.816231467 -0.8453976485 0.5986084776 0.9371541945 0.2864647686 -0.1991982735 0
-2.867970726 -0.6378264078 0.6096059964 0.9559529045 0.2118164706 -0.2031940626 0
-2.905184911 -0.4270339375 0.6175161157 0.9682603482 0.1418242038 -0.2058100905 0
-2.927589915 -0.214063001 0.6222784465 0.9756723235 0.07109675827 -0.2073855545 0
-2.93507102 0 0.6238686044 -0.9781476007 0 0.2079116909 0
-2.927589915 0.214063001 0.6222784465 0.9756723235 -0.07109675827 -0.2073855545 0
-2.905184911 0.4270339375 0.6175161157 0.9682603482 -0.1418242038 -0.2058100905 0
-2.867970726 0.6378264078 0.6096059964 0.9559529045 -0.2118164706 -0.2031940626 0
-2.816231467 0.8453976485 0.5986084776 0.9371541945 -0.2864647686 -0.1991982735 0
-2.750057904 1.048638496 0.5845428524 0.9142497735 -0.3555042685 -0.1943297885 0
-2.669889474 1.246545759 0.5675025267 0.8853911876 -0.4250468456 -0.1881957067 0
-2.576114681 1.4380972 0.547570079 0.8548032364 -0.4861056511 -0.1816940369 0
-2.469153673 1.622284952 0.5248348151 0.8191319002 -0.5465418467 -0.1741118604 0
-2.34970202 1.798270362 0.4994445824 0.7770511538 -0.6073806552 -0.1651673216 0
-2.21823767 1.965059505 0.4715009721 0.7362520717 -0.6583632253 -0.156495209 0
-2.075415091 2.12178838 0.4411430959 0.686212162 -0.712627568 -0.1458588978 0
-1.922096272 2.267782339 0.4085541747 0.6345243266 -0.7610442426 -0.1348723092 0
-1.758937863 2.402177469 0.3738737842 0.5733110641 -0.8102248537 -0.1218610286 0
-1.586811791 2.524312832 0.3372872584 0.5124506296 -0.8517803428 -0.1089247439 0
-1.406636312 2.633637512 0.298989778 0.4537239083 -0.885908323 -0.09644199392 0
-1.219255784 2.72948003 0.2591608171 0.384451338 -0.919521285 -0.08171765456 0
-1.025671452 2.811419792 0.2180131974 0.3134338158 -0.9472701289 -0.06662241421 0
-0.8268607321 2.879016646 0.1757546742 -0.2392120382 0.9696351252 0.05084608837 0
-0.6238739731 2.932020259 0.1326085067 -0.1916521407 0.9806171324 0.04073692007 0
-0.4176932141 2.970020696 0.08878343343 0.139580406 -0.9897661727 -0.02966873118 0
-0.2093692062 2.992730818 0.04450279858 0.07575439838 -0.9969964863 -0.01610209445 0
-1.796827992e-16 3.000215321 3.8192758e-17 0 1 0 0
-1.819092931e-16 -3.000215321 2.778117971e-17 -0 1 0 0
-0.2119635516 -2.992730818 0.02978953447 0.0766930898 0.9969964863 -0.01077851086 0
-0.4228689537 -2.970020696 0.05943035573 0.1413099812 0.9897661727 -0.01985982271 0
-0.6316045493 -2.932020259 0.08876623056 -0.1940269496 -0.9806171324 0.02726870946 0
-0.8371065672 -2.879016646 0.1176476557 0.2421761736 0.9696351252 -0.03403564159 0
-1.038380801 -2.811419792 0.1459349044 0.3173176515 0.9472701289 -0.04459608761 0
-1.234363882 -2.72948003 0.1734785303 0.3892151693 0.919521285 -0.05470062479 0
-1.424066289 -2.633637512 0.2001394649 0.4593461131 0.885908323 -0.06455688616 0
-1.606474368 -2.524312831 0.2257752485 0.5188005316 0.8517803428 -0.07291265977 0
-1.780733295 -2.402177469 0.2502657438 0.5804151028 0.8102248537 -0.08157202304 0
-1.94591344 -2.267782338 0.2734802991 0.6423868739 0.7610442426 -0.09028158748 0
-2.101132071 -2.12178838 0.295294855 0.694715186 0.712627568 -0.09763585216 0
-2.2457244 -1.965059505 0.3156159817 0.7453751526 0.6583632253 -0.1047556461 0
-2.378817757 -1.798270362 0.3343210331 0.7866797862 0.6073806552 -0.1105606339 0
-2.499749565 -1.622284952 0.3513168904 0.8292819654 0.5465418467 -0.1165479797 0
-2.608035953 -1.4380972 0.3665355498 0.865395314 0.4861056511 -0.1216233798 0
-2.702972733 -1.246545759 0.379878044 0.896362288 0.4250468456 -0.1259755042 0
-2.78413455 -1.048638496 0.3912845935 0.9255784678 0.3555042685 -0.1300815705 0
-2.851128086 -0.8453976484 0.400699921 0.9487667031 0.2864647686 -0.1333404645 0
-2.903508459 -0.6378264078 0.4080615023 0.9677983526 0.2118164706 -0.1360151884 0
-2.941183774 -0.4270339375 0.4133564226 0.9802583008 0.1418242038 -0.1377663199 0
-2.963866404 -0.214063001 0.4165442582 0.9877621197 0.07109675829 -0.1388209129 0
-2.971440208 -1.367328622e-18 0.4176086872 0.9902680687 -2.775557562e-17 -0.1391731011 0
-2.963866404 0.214063001 0.4165442582 0.9877621197 -0.07109675829 -0.1388209129 0
-2.941183774 0.4270339375 0.4133564226 0.9802583008 -0.1418242038 -0.1377663199 0
-2.903508459 0.6378264078 0.4080615023 0.9677983526 -0.2118164706 -0.1360151884 0
-2.851128086 0.8453976484 0.400699921 0.9487667031 -0.2864647686 -0.1333404645 0
-2.78413455 1.048638496 0.3912845935 0.9255784678 -0.3555042685 -0.1300815705 0
-2.702972733 1.246545759 0.379878044 0.896362288 -0.4250468456 -0.1259755042 0
-2.608035953 1.4380972 0.3665355498 0.865395314 -0.4861056511 -0.1216233798 0
-2.499749565 1.622284952 0.3513168904 0.8292819654 -0.5465418467 -0.1165479797 0
-2.378817757 1.798270362 0.3343210331 0.7866797862 -0.6073806552 -0.1105606339 0
-2.2457244 1.965059505 0.3156159817 0.7453751526 -0.6583632253 -0.1047556461 0
-2.101132071 2.12178838 0.295294855 0.694715186 -0.712627568 -0.09763585216 0
-1.94591344 2.267782338 0.2734802991 0.6423868739 -0.7610442426 -0.09028158748 0
-1.780733295 2.402177469 0.2502657438 0.5804151028 -0.8102248537 -0.08157202304 0
-1.606474368 2.524312831 0.2257752485 0.5188005316 -0.8517803428 -0.07291265977 0
-1.424066289 2.633637512 0.2001394649 0.4593461131 -0.885908323 -0.06455688616 0
-1.234363882 2.72948003 0.1734785303 0.3892151693 -0.919521285 -0.05470062479 0
-1.038380801 2.811419792 0.1459349044 0.3173176515 -0.9472701289 -0.04459608761 0
-0.8371065672 2.879016646 0.1176476557 -0.2421761736 0.9696351252 0.03403564159 0
-0.6316045493 2.932020259 0.08876623056 -0.1940269496 0.9806171324 0.02726870946 0
-0.4228689537 2.970020696 0.05943035573 0.1413099812 -0.9897661727 -0.01985982271 0
-0.2119635516 2.992730818 0.02978953447 0.0766930898 -0.9969964863 -0.01077851086 0
-1.819092931e-16 3.000215321 2.584262087e-17 0 1 0 0
-1.832495432e-16 -3.000215321 1.502955216e-17 -0 1 0 0
-0.2135252319 -2.992730818 0.01493113874 0.0772581402 0.9969964863 -0.005402415441 0
-0.4259845182 -2.970020696 0.0297877393 0.1423511084 0.9897661727 -0.009954159189 0
-0.6362580116 -2.932020259 0.04449149432 -0.1954564787 -0.9806171324 0.01366764843 0
-0.8432741033 -2.879016646 0.05896746963 0.2439604509 0.9696351252 -0.01705937658 0
-1.046031261 -2.811419792 0.07314563131 0.3196555474 0.9472701289 -0.02235249336 0
-1.243458285 -2.72948003 0.08695107362 0.3920827834 0.919521285 -0.02741709907 0
-1.434558358 -2.633637512 0.1003140926 0.4627304298 0.8859083231 -0.03235726375 0
-1.618310362 -2.524312831 0.1131632844 0.5226228897 0.8517803428 -0.03654535253 0
-1.793853174 -2.402177468 0.1254384335 0.5846914175 0.8102248537 -0.0408856068 0
-1.960250314 -2.267782339 0.1370740551 0.647119777 0.7610442426 -0.04525102299 0
-2.116612547 -2.12178838 0.1480079675 0.6998336275 0.712627568 -0.0489371345 0
-2.262270186 -1.965059505 0.1581933418 0.7508668407 0.6583632253 -0.0525057244 0
-2.396344133 -1.798270362 0.1675687056 0.7924757937 0.6073806552 -0.0554153058 0
-2.518166928 -1.622284952 0.1760873852 0.8353918524 0.5465418467 -0.05841628896 0
-2.627251136 -1.4380972 0.1837152962 0.8717712726 0.4861056511 -0.06096018585 0
-2.72288738 -1.246545759 0.1904028337 0.9029664015 0.4250468456 -0.06314156175 0
-2.804647171 -1.048638496 0.1961200353 0.9323978369 0.3555042685 -0.06519960825 0
-2.872134295 -0.8453976484 0.2008391947 0.9557569157 0.2864647686 -0.06683303419 0
-2.924900589 -0.6378264079 0.2045289735 0.9749287844 0.2118164705 -0.06817366184 0
-2.962853484 -0.4270339375 0.2071828984 0.9874805335 0.1418242038 -0.06905136566 0
-2.985703233 -0.214063001 0.2087807085 0.9950396382 0.07109675825 -0.06957994971 0
-2.993332839 0 0.2093142225 -0.9975640503 0 0.06975647381 0
-2.985703233 0.214063001 0.2087807085 0.9950396382 -0.07109675825 -0.06957994971 0
-2.962853484 0.4270339375 0.2071828984 0.9874805335 -0.1418242038 -0.06905136566 0
-2.924900589 0.6378264079 0.2045289735 0.9749287844 -0.2118164705 -0.06817366184 0
-2.872134295 0.8453976484 0.2008391947 0.9557569157 -0.2864647686 -0.06683303419 0
-2.804647171 1.048638496 0.1961200353 0.9323978369 -0.3555042685 -0.06519960825 0
-2.72288738 1.246545759 0.1904028337 0.9029664015 -0.4250468456 -0.06314156175 0
-2.627251136 1.4380972 0.1837152962 0.8717712726 -0.4861056511 -0.06096018585 0
-2.518166928 1.622284952 0.1760873852 0.8353918524 -0.5465418467 -0.05841628896 0
-2.396344133 1.798270362 0.1675687056 0.7924757937 -0.6073806552 -0.0554153058 0
-2.262270186 1.965059505 0.1581933418 0.7508668407 -0.6583632253 -0.0525057244 0
-2.116612547 2.12178838 0.1480079675 0.6998336275 -0.712627568 -0.0489371345 0
-1.960250314 2.267782339 0.1370740551 0.647119777 -0.7610442426 -0.04525102299 0
-1.793853174 2.402177468 0.1254384335 0.5846914175 -0.8102248537 -0.0408856068 0
-1.618310362 2.524312831 0.1131632844 0.5226228897 -0.8517803428 -0.03654535253 0
-1.434558358 2.633637512 0.1003140926 0.4627304298 -0.8859083231 -0.03235726375 0
-1.243458285 2.72948003 0.08695107362 0.3920827834 -0.919521285 -0.02741709907 0
-1.046031261 2.811419792 0.07314563131 0.3196555474 -0.9472701289 -0.02235249336 0
-0.8432741033 2.879016646 0.05896746963 -0.2439604509 0.9696351252 0.01705937658 0
-0.6362580116 2.932020259 0.04449149432 -0.1954564787 0.9806171324 0.01366764843 0
-0.4259845182 2.970020696 0.0297877393 0.1423511084 -0.9897661727 -0.009954159189 0
-0.2135252319 2.992730818 0.01493113874 0.0772581402 -0.9969964863 -0.005402415441 0
-1.832495432e-16 3.000215321 1.281555043e-17 0 1 6.938893904e-18 0
-1.836970199e-16 -3.000215321 1.107747908e-18 -0 1 0 0
-0.2140466388 -2.992730818 2.620966362e-17 0.0774467967 0.9969964863 -1.94102218e-19 0
-0.427024729 -2.970020696 5.228543278e-17 0.1426987153 0.9897661727 3.390114212e-19 0
-0.6378116888 -2.932020259 7.809795135e-17 0.1959337635 0.9806171324 -4.619908274e-18 0
-0.8453332927 -2.879016646 1.035089471e-16 0.2445561775 0.9696351252 -3.75957301e-18 0
-1.048585563 -2.811419792 1.283930405e-16 0.3204361137 0.9472701289 -3.293201079e-18 0
-1.246494683 -2.72948003 1.526239119e-16 0.3930402096 0.919521285 -4.584767336e-18 0
-1.438061404 -2.633637512 1.760762727e-16 0.4638603703 0.8859083231 -4.501348673e-18 0
-1.622262111 -2.524312832 1.986007484e-16 0.5238990815 0.8517803428 4.236370691e-17 0
-1.798233581 -2.402177468 2.201473964e-16 0.5861191743 0.8102248537 3.459874569e-17 0
-1.965037046 -2.267782338 2.405809814e-16 0.6486999775 0.7610442426 1.561562875e-17 0
-2.121781099 -2.121788379 2.597768637e-16 0.7015425499 0.712627568 1.515473678e-17 0
-2.267794419 -1.965059505 2.776437717e-16 -0.752700381 -0.6583632253 -1.947282715e-17 0
-2.402195761 -1.798270362 2.941010202e-16 -0.7944109388 -0.6073806552 -1.813733581e-17 0
-2.524316035 -1.622284953 3.090622393e-16 -0.8374317941 -0.5465418467 -1.401340121e-17 0
-2.633666616 -1.4380972 3.224460047e-16 -0.8739000492 -0.4861056511 -1.113791913e-17 0
-2.729536393 -1.246545759 3.34193392e-16 -0.9051713534 -0.4250468456 2.614963628e-20 0
-2.811495834 -1.048638496 3.442295892e-16 -0.9346746573 -0.3555042685 -2.245337569e-19 0
-2.879147754 -0.8453976484 3.525121225e-16 -0.9580907767 -0.2864647686 1.759699206e-19 0
-2.932042899 -0.6378264079 3.589990824e-16 -0.9773094611 -0.2118164706 1.862564949e-18 0
-2.970088471 -0.4270339375 3.636544371e-16 -0.9898918604 -0.1418242037 -9.688046811e-20 0
-2.992994016 -0.214063001 3.664590912e-16 -0.9974694236 -0.07109675826 1.766620935e-18 0
-3.000642253 2.59074158e-32 3.673940397e-16 1 0 0 0
-2.992994016 0.214063001 3.664590912e-16 -0.9974694236 0.07109675826 1.766620935e-18 0
-2.970088471 0.4270339375 3.636544371e-16 -0.9898918604 0.1418242037 -9.688046811e-20 0
-2.932042899 0.6378264079 3.589990824e-16 -0.9773094611 0.2118164706 1.862564949e-18 0
-2.879147754 0.8453976484 3.525121225e-16 -0.9580907767 0.2864647686 1.759699206e-19 0
-2.811495834 1.048638496 3.442295892e-16 -0.9346746573 0.3555042685 -2.245337569e-19 0
-2.729536393 1.246545759 3.34193392e-16 -0.9051713534 0.4250468456 2.614963628e-20 0
-2.633666616 1.4380972 3.224460047e-16 -0.8739000492 0.4861056511 -1.113791913e-17 0
-2.524316035 1.622284953 3.090622393e-16 -0.8374317941 0.5465418467 -1.401340121e-17 0
-2.402195761 1.798270362 2.941010202e-16 -0.7944109388 0.6073806552 -1.813733581e-17 0
-2.267794419 1.965059505 2.776437717e-16 -0.752700381 0.6583632253 -1.947282715e-17 0
-2.121781099 2.121788379 2.597768637e-16 -0.7015425499 0.712627568 -1.515473678e-17 0
-1.965037046 2.267782338 2.405809814e-16 -0.6486999775 0.7610442426 -1.561562875e-17 0
-1.798233581 2.402177468 2.201473964e-16 -0.5861191743 0.8102248537 -3.459874569e-17 0
-1.622262111 2.524312832 1.986007484e-16 -0.5238990815 0.8517803428 -4.236370691e-17 0
-1.438061404 2.633637512 1.760762727e-16 -0.4638603703 0.8859083231 4.501348673e-18 0
-1.246494683 2.72948003 1.526239119e-16 -0.3930402096 0.919521285 4.584767336e-18 0
-1.048585563 2.811419792 1.283933712e-16 0.3204361137 -0.9472701289 -3.84232956e-18 0
-0.8453332927 2.879016646 1.035089113e-16 -0.2445561775 0.9696351252 3.694978622e-18 0
-0.6378116888 2.932020259 7.809804665e-17 -0.1959337635 0.9806171324 4.781120691e-18 0
-0.427024729 2.970020696 5.228553226e-17 -0.1426987153 0.9897661727 -1.620519543e-19 0
-0.2140466388 2.992730818 2.620961893e-17 -0.0774467967 0.9969964863 7.5121325e-20 0
-1.836970199e-16 3.000215321 -2.769369769e-19 0 1 0 0
-1.832495432e-16 -3.000215321 -1.281555043e-17 -0 1 6.938893904e-18 0
-0.2135252319 -2.992730818 -0.01493113874 -0.0772581402 -0.9969964863 -0.005402415441 0
-0.4259845182 -2.970020696 -0.0297877393 0.1423511084 0.9897661727 0.009954159189 0
-0.6362580116 -2.932020259 -0.04449149432 -0.1954564787 -0.9806171324 -0.01366764843 0
-0.8432741033 -2.879016646 -0.05896746963 0.2439604509 0.9696351252 0.01705937658 0
-1.046031261 -2.811419792 -0.07314563131 0.3196555474 0.9472701289 0.02235249336 0
-1.243458285 -2.72948003 -0.08695107362 -0.3920827834 -0.919521285 -0.02741709907 0
-1.434558358 -2.633637512 -0.1003140926 -0.4627304298 -0.8859083231 -0.03235726375 0
-1.618310362 -2.524312831 -0.1131632844 -0.5226228897 -0.8517803428 -0.03654535253 0
-1.793853174 -2.402177468 -0.1254384335 -0.5846914175 -0.8102248537 -0.0408856068 0
-1.960250314 -2.267782339 -0.1370740551 -0.647119777 -0.7610442426 -0.04525102299 0
-2.116612547 -2.12178838 -0.1480079675 -0.6998336275 -0.712627568 -0.0489371345 0
-2.262270186 -1.965059505 -0.1581933418 0.7508668407 0.6583632253 0.0525057244 0
-2.396344133 -1.798270362 -0.1675687056 0.7924757937 0.6073806552 0.0554153058 0
-2.518166928 -1.622284952 -0.1760873852 0.8353918524 0.5465418467 0.05841628896 0
-2.627251136 -1.4380972 -0.1837152962 0.8717712726 0.4861056511 0.06096018585 0
-2.72288738 -1.246545759 -0.1904028337 0.9029664015 0.4250468456 0.06314156175 0
-2.804647171 -1.048638496 -0.1961200353 0.9323978369 0.3555042685 0.06519960825 0
-2.872134295 -0.8453976484 -0.2008391947 0.9557569157 0.2864647686 0.06683303419 0
-2.924900589 -0.6378264079 -0.2045289735 0.9749287844 0.2118164705 0.06817366184 0
-2.962853484 -0.4270339375 -0.2071828984 0.9874805335 0.1418242038 0.06905136566 0
-2.985703233 -0.214063001 -0.2087807085 0.9950396382 0.07109675825 0.06957994971 0
-2.993332839 0 -0.2093142225 -0.9975640503 0 -0.06975647381 0
-2.985703233 0.214063001 -0.2087807085 0.9950396382 -0.07109675825 0.06957994971 0
-2.962853484 0.4270339375 -0.2071828984 0.9874805335 -0.1418242038 0.06905136566 0
-2.924900589 0.6378264079 -0.2045289735 0.9749287844 -0.2118164705 0.06817366184 0
-2.872134295 0.8453976484 -0.2008391947 0.9557569157 -0.2864647686 0.06683303419 0
-2.804647171 1.048638496 -0.1961200353 0.9323978369 -0.3555042685 0.06519960825 0
-2.72288738 1.246545759 -0.1904028337 0.9029664015 -0.4250468456 0.06314156175 0
-2.627251136 1.4380972 -0.1837152962 0.8717712726 -0.4861056511 0.06096018585 0
-2.518166928 1.622284952 -0.1760873852 0.8353918524 -0.5465418467 0.05841628896 0
-2.396344133 1.798270362 -0.1675687056 0.7924757937 -0.6073806552 0.0554153058 0
-2.262270186 1.965059505 -0.1581933418 0.7508668407 -0.6583632253 0.0525057244 0
-2.116612547 2.12178838 -0.1480079675 -0.6998336275 0.712627568 -0.0489371345 0
-1.960250314 2.267782339 -0.1370740551 -0.647119777 0.7610442426 -0.04525102299 0
-1.793853174 2.402177468 -0.1254384335 -0.5846914175 0.8102248537 -0.0408856068 0
-1.618310362 2.524312831 -0.1131632844 -0.5226228897 0.8517803428 -0.03654535253 0
-1.434558358 2.633637512 -0.1003140926 -0.4627304298 0.8859083231 -0.03235726375 0
-1.243458285 2.72948003 -0.08695107362 -0.3920827834 0.919521285 -0.02741709907 0
-1.046031261 2.811419792 -0.07314563131 0.3196555474 -0.9472701289 0.02235249336 0
-0.8432741033 2.879016646 -0.05896746963 -0.2439604509 0.9696351252 -0.01705937658 0
-0.6362580116 2.932020259 -0.04449149432 -0.1954564787 0.9806171324 -0.01366764843 0
-0.4259845182 2.970020696 -0.0297877393 0.1423511084 -0.9897661727 0.009954159189 0
-0.2135252319 2.992730818 -0.01493113874 -0.0772581402 0.9969964863 -0.005402415441 0
-1.832495432e-16 3.000215321 -1.281405634e-17 0 1 0 0
-1.819092931e-16 -3.000215321 -2.556867207e-17 0 1 1.387778781e-17 0
-0.2119635516 -2.992730818 -0.02978953447 -0.0766930898 -0.9969964863 -0.01077851086 0
-0.4228689537 -2.970020696 -0.05943035573 0.1413099812 0.9897661727 0.01985982271 0
-0.6316045493 -2.932020259 -0.08876623056 -0.1940269496 -0.9806171324 -0.02726870946 0
-0.8371065672 -2.879016646 -0.1176476557 0.2421761736 0.9696351252 0.03403564159 0
-1.038380801 -2.811419792 -0.1459349044 0.3173176515 0.9472701289 0.04459608761 0
-1.234363882 -2.72948003 -0.1734785303 -0.3892151693 -0.919521285 -0.05470062479 0
-1.424066289 -2.633637512 -0.2001394649 -0.4593461131 -0.885908323 -0.06455688616 0
-1.606474368 -2.524312831 -0.2257752485 -0.5188005316 -0.8517803428 -0.07291265977 0
-1.780733295 -2.402177469 -0.2502657438 -0.5804151028 -0.8102248537 -0.08157202304 0
-1.94591344 -2.267782338 -0.2734802991 -0.6423868739 -0.7610442426 -0.09028158748 0
-2.101132071 -2.12178838 -0.295294855 -0.694715186 -0.712627568 -0.09763585216 0
-2.2457244 -1.965059505 -0.3156159817 0.7453751526 0.6583632253 0.1047556461 0
-2.378817757 -1.798270362 -0.3343210331 0.7866797862 0.6073806552 0.1105606339 0
-2.499749565 -1.622284952 -0.3513168904 0.8292819654 0.5465418467 0.1165479797 0
-2.608035953 -1.4380972 -0.3665355498 0.865395314 0.4861056511 0.1216233798 0
-2.702972733 -1.246545759 -0.379878044 0.896362288 0.4250468456 0.1259755042 0
-2.78413455 -1.048638496 -0.3912845935 0.9255784678 0.3555042685 0.1300815705 0
-2.851128086 -0.8453976484 -0.400699921 0.9487667031 0.2864647686 0.1333404645 0
-2.903508459 -0.6378264078 -0.4080615023 0.9677983526 0.2118164706 0.1360151884 0
-2.941183774 -0.4270339375 -0.4133564226 0.9802583008 0.1418242038 0.1377663199 0
-2.963866404 -0.214063001 -0.4165442582 0.9877621197 0.07109675829 0.1388209129 0
-2.971440208 -1.952528857e-19 -0.4176086872 0.9902680687 -2.775557562e-17 0.1391731011 0
-2.963866404 0.214063001 -0.4165442582 0.9877621197 -0.07109675829 0.1388209129 0
-2.941183774 0.4270339375 -0.4133564226 0.9802583008 -0.1418242038 0.1377663199 0
-2.903508459 0.6378264078 -0.4080615023 0.9677983526 -0.2118164706 0.1360151884 0
-2.851128086 0.8453976484 -0.400699921 0.9487667031 -0.2864647686 0.1333404645 0
-2.78413455 1.048638496 -0.3912845935 0.9255784678 -0.3555042685 0.1300815705 0
-2.702972733 1.246545759 -0.379878044 0.896362288 -0.4250468456 0.1259755042 0
-2.608035953 1.4380972 -0.3665355498 0.865395314 -0.4861056511 0.1216233798 0
-2.499749565 1.622284952 -0.3513168904 0.8292819654 -0.5465418467 0.1165479797 0
-2.378817757 1.798270362 -0.3343210331 0.7866797862 -0.6073806552 0.1105606339 0
-2.2457244 1.965059505 -0.3156159817 0.7453751526 -0.6583632253 0.1047556461 0
-2.101132071 2.12178838 -0.295294855 -0.694715186 0.712627568 -0.09763585216 0
-1.94591344 2.267782338 -0.2734802991 -0.6423868739 0.7610442426 -0.09028158748 0
-1.780733295 2.402177469 -0.2502657438 -0.5804151028 0.8102248537 -0.08157202304 0
-1.606474368 2.524312831 -0.2257752485 -0.5188005316 0.8517803428 -0.07291265977 0
-1.424066289 2.633637512 -0.2001394649 -0.4593461131 0.885908323 -0.06455688616 0
-1.234363882 2.72948003 -0.1734785303 -0.3892151693 0.919521285 -0.05470062479 0
-1.038380801 2.811419792 -0.1459349044 0.3173176515 -0.9472701289 0.04459608761 0
-0.8371065672 2.879016646 -0.1176476557 -0.2421761736 0.9696351252 -0.03403564159 0
-0.6316045493 2.932020259 -0.08876623056 -0.1940269496 0.9806171324 -0.02726870946 0
-0.4228689537 2.970020696 -0.05943035573 0.1413099812 -0.9897661727 0.01985982271 0
-0.2119635516 2.992730818 -0.02978953447 -0.0766930898 0.9969964863 -0.01077851086 0
-1.819092931e-16 3.000215321 -2.667940816e-17 0 1 -2.775557562e-17 0
-1.796827992e-16 -3.000215321 -3.8192758e-17 -0 1 0 0
-0.2093692062 -2.992730818 -0.04450279858 -0.07575439838 -0.9969964863 -0.01610209445 0
-0.4176932141 -2.970020696 -0.08878343343 0.139580406 0.9897661727 0.02966873118 0
-0.6238739731 -2.932020259 -0.1326085067 -0.1916521407 -0.9806171324 -0.04073692007 0
-0.8268607321 -2.879016646 -0.1757546742 0.2392120382 0.9696351252 0.05084608837 0
-1.025671452 -2.811419792 -0.2180131974 0.3134338158 0.9472701289 0.06662241421 0
-1.219255784 -2.72948003 -0.2591608171 -0.384451338 -0.919521285 -0.08171765456 0
-1.406636312 -2.633637512 -0.298989778 -0.4537239083 -0.885908323 -0.09644199392 0
-1.586811791 -2.524312832 -0.3372872584 -0.5124506296 -0.8517803428 -0.1089247439 0
-1.758937863 -2.402177469 -0.3738737842 -0.5733110641 -0.8102248537 -0.1218610286 0
-1.922096272 -2.267782339 -0.4085541747 -0.6345243266 -0.7610442426 -0.1348723092 0
-2.075415091 -2.12178838 -0.4411430959 -0.686212162 -0.712627568 -0.1458588978 0
-2.21823767 -1.965059505 -0.4715009721 0.7362520717 0.6583632253 0.156495209 0
-2.34970202 -1.798270362 -0.4994445824 0.7770511538 0.6073806552 0.1651673216 0
-2.469153673 -1.622284952 -0.5248348151 0.8191319002 0.5465418467 0.1741118604 0
-2.576114681 -1.4380972 -0.547570079 0.8548032364 0.4861056511 0.1816940369 0
-2.669889474 -1.246545759 -0.5675025267 0.8853911876 0.4250468456 0.1881957067 0
-2.750057904 -1.048638496 -0.5845428524 0.9142497735 0.3555042685 0.1943297885 0
-2.816231467 -0.8453976485 -0.5986084776 0.9371541945 0.2864647686 0.1991982735 0
-2.867970726 -0.6378264078 -0.6096059964 0.9559529045 0.2118164706 0.2031940626 0
-2.905184911 -0.4270339375 -0.6175161157 0.9682603482 0.1418242038 0.2058100905 0
-2.927589915 -0.214063001 -0.6222784465 0.9756723235 0.07109675827 0.2073855545 0
-2.93507102 6.956196737e-19 -0.6238686044 0.9781476007 2.775557562e-17 0.2079116909 0
-2.927589915 0.214063001 -0.6222784465 0.9756723235 -0.07109675827 0.2073855545 0
-2.905184911 0.4270339375 -0.6175161157 0.9682603482 -0.1418242038 0.2058100905 0
-2.867970726 0.6378264078 -0.6096059964 0.9559529045 -0.2118164706 0.2031940626 0
-2.816231467 0.8453976485 -0.5986084776 0.9371541945 -0.2864647686 0.1991982735 0
-2.750057904 1.048638496 -0.5845428524 0.9142497735 -0.3555042685 0.1943297885 0
-2.669889474 1.246545759 -0.5675025267 0.8853911876 -0.4250468456 0.1881957067 0
-2.576114681 1.4380972 -0.547570079 0.8548032364 -0.4861056511 0.1816940369 0
-2.469153673 1.622284952 -0.5248348151 0.8191319002 -0.5465418467 0.1741118604 0
-2.34970202 1.798270362 -0.4994445824 0.7770511538 -0.6073806552 0.1651673216 0
-2.21823767 1.965059505 -0.4715009721 0.7362520717 -0.6583632253 0.156495209 0
-2.075415091 2.12178838 -0.4411430959 -0.686212162 0.712627568 -0.1458588978 0
-1.922096272 2.267782339 -0.4085541747 -0.6345243266 0.7610442426 -0.1348723092 0
-1.758937863 2.402177469 -0.3738737842 -0.5733110641 0.8102248537 -0.1218610286 0
-1.586811791 2.524312832 -0.3372872584 -0.5124506296 0.8517803428 -0.1089247439 0
-1.406636312 2.633637512 -0.298989778 -0.4537239083 0.885908323 -0.09644199392 0
-1.219255784 2.72948003 -0.2591608171 -0.384451338 0.919521285 -0.08171765456 0
-1.025671452 2.811419792 -0.2180131974 0.3134338158 -0.9472701289 0.06662241421 0
-0.8268607321 2.879016646 -0.1757546742 -0.2392120382 0.9696351252 -0.05084608837 0
-0.6238739731 2.932020259 -0.1326085067 -0.1916521407 0.9806171324 -0.04073692007 0
-0.4176932141 2.970020696 -0.08878343343 0.139580406 -0.9897661727 0.02966873118 0
-0.2093692062 2.992730818 -0.04450279858 -0.07575439838 0.9969964863 -0.01610209445 0
-1.796827992e-16 3.000215321 -3.597726218e-17 0 1 0 0
-1.765809089e-16 -3.000215321 -5.06218081e-17 -0 1 -5.551115123e-17 0
-0.205754835 -2.992730818 -0.05899924954 -0.07444663914 -0.9969964863 -0.02134723026 0
-0.4104825152 -2.970020696 -0.1177039671 0.1371708091 0.9897661727 0.03933309657 0
-0.6131039456 -2.932020259 -0.1758047275 -0.1883436218 -0.9806171324 -0.0540066645 0
-0.8125865146 -2.879016646 -0.2330054335 0.2350824859 0.9696351252 0.06740881812 0
-1.007965137 -2.811419792 -0.289029352 0.3080229621 0.9472701289 0.0883241631 0
-1.198207593 -2.72948003 -0.3435804985 -0.3778144985 -0.919521285 -0.1083365641 0
-1.382353344 -2.633637512 -0.3963834428 -0.4458912062 -0.8859083231 -0.127857246 0
-1.559418428 -2.524312832 -0.4471560387 -0.5036041196 -0.8517803428 -0.1444061576 0
-1.728573061 -2.402177469 -0.4956603494 -0.5634139115 -0.8102248537 -0.1615563394 0
-1.888914843 -2.267782339 -0.5416376154 -0.6235704405 -0.7610442426 -0.1788059466 0
-2.039586897 -2.12178838 -0.5848421317 -0.6743659813 -0.712627568 -0.1933713335 0
-2.17994391 -1.965059505 -0.6250888572 0.7235420448 0.6583632253 0.2074723429 0
-2.309138771 -1.798270362 -0.6621348877 0.7636368063 0.6073806552 0.2189693307 0
-2.426528313 -1.622284952 -0.6957957971 0.8049911066 0.5465418467 0.2308274855 0
-2.531642838 -1.4380972 -0.725936902 0.8400466433 0.4861056511 0.2408794989 0
-2.623798782 -1.246545759 -0.7523621939 0.8701065503 0.4250468456 0.2494990385 0
-2.702583253 -1.048638496 -0.7749532775 0.8984669462 0.3555042685 0.2576312512 0
-2.767614452 -0.8453976485 -0.7936006738 0.9209759648 0.2864647686 0.2640856084 0
-2.818460529 -0.6378264078 -0.8081805515 0.93945015 0.2118164706 0.2693829958 0
-2.85503228 -0.4270339375 -0.8186673325 0.9515451285 0.1418242038 0.272851175 0
-2.877050503 -0.214063001 -0.8249809565 0.9588291497 0.07109675828 0.2749398346 0
-2.884402461 -1.83617208e-18 -0.8270890962 0.9612616959 5.551115123e-17 0.2756373559 0
-2.877050503 0.214063001 -0.8249809565 0.9588291497 -0.07109675828 0.2749398346 0
-2.85503228 0.4270339375 -0.8186673325 0.9515451285 -0.1418242038 0.272851175 0
-2.818460529 0.6378264078 -0.8081805515 0.93945015 -0.2118164706 0.2693829958 0
-2.767614452 0.8453976485 -0.7936006738 0.9209759648 -0.2864647686 0.2640856084 0
-2.702583253 1.048638496 -0.7749532775 0.8984669462 -0.3555042685 0.2576312512 0
-2.623798782 1.246545759 -0.7523621939 0.8701065503 -0.4250468456 0.2494990385 0
-2.531642838 1.4380972 -0.725936902 0.8400466433 -0.4861056511 0.2408794989 0
-2.426528313 1.622284952 -0.6957957971 0.8049911066 -0.5465418467 0.2308274855 0
-2.309138771 1.798270362 -0.6621348877 0.7636368063 -0.6073806552 0.2189693307 0
-2.17994391 1.965059505 -0.6250888572 0.7235420448 -0.6583632253 0.2074723429 0
-2.039586897 2.12178838 -0.5848421317 -0.6743659813 0.712627568 -0.1933713335 0
-1.888914843 2.267782339 -0.5416376154 -0.6235704405 0.7610442426 -0.1788059466 0
-1.728573061 2.402177469 -0.4956603494 -0.5634139115 0.8102248537 -0.1615563394 0
-1.559418428 2.524312832 -0.4471560387 -0.5036041196 0.8517803428 -0.1444061576 0
-1.382353344 2.633637512 -0.3963834428 -0.4458912062 0.8859083231 -0.127857246 0
-1.198207593 2.72948003 -0.3435804985 -0.3778144985 0.919521285 -0.1083365641 0
-1.007965137 2.811419792 -0.289029352 0.3080229621 -0.9472701289 0.0883241631 0
-0.8125865146 2.879016646 -0.2330054335 0.2350824859 -0.9696351252 0.06740881812 0
-0.6131039456 2.932020259 -0.1758047275 -0.1883436218 0.9806171324 -0.0540066645 0
-0.4104825152 2.970020696 -0.1177039671 0.1371708091 -0.9897661727 0.03933309657 0
-0.205754835 2.992730818 -0.05899924954 -0.07444663914 0.9969964863 -0.02134723026 0
-1.765809089e-16 3.000215321 -5.063376083e-17 0 1 0 0
-1.72618734e-16 -3.000215321 -6.281612834e-17 -0 1 -5.551115123e-17 0
-0.201138047 -2.992730818 -0.07320826208 -0.07277618337 -0.9969964863 -0.02648836451 0
-0.4012719868 -2.970020696 -0.1460510591 0.1340929298 0.9897661727 0.04880583507 0
-0.5993469374 -2.932020259 -0.2181444452 -0.1841175117 -0.9806171324 -0.06701329389 0
-0.7943534572 -2.879016646 -0.2891210139 0.2298076353 0.9696351252 0.08364313888 0
-0.985348116 -2.811419792 -0.3586373846 0.3011114515 0.9472701289 0.1095956055 0
-1.171321856 -2.72948003 -0.4263262901 -0.3693369847 -0.919521285 -0.1344276688 0
-1.351335689 -2.633637512 -0.4918459674 -0.4358861671 -0.885908323 -0.1586495904 0
-1.524427735 -2.524312831 -0.5548463197 -0.4923041009 -0.8517803428 -0.179184039 0
-1.689786826 -2.402177469 -0.6150321071 -0.550771863 -0.8102248537 -0.2004645641 0
-1.846530811 -2.267782338 -0.672082252 -0.609578582 -0.7610442426 -0.2218684593 0
-1.993822041 -2.12178838 -0.7256918755 -0.6592343573 -0.712627568 -0.2399416836 0
-2.131029681 -1.965059505 -0.7756313722 0.7073069937 0.6583632253 0.2574386923 0
-2.25732563 -1.798270362 -0.8215993386 0.746502097 0.6073806552 0.2717045432 0
-2.372081151 -1.622284952 -0.8633669321 0.7869284773 0.5465418467 0.2864185424 0
-2.474837084 -1.4380972 -0.9007670333 0.8211974275 0.4861056511 0.2988914202 0
-2.564925207 -1.246545759 -0.9335564284 0.8505828413 0.4250468456 0.3095868362 0
-2.641941888 -1.048638496 -0.9615882079 0.8783068783 0.3555042685 0.3196775604 0
-2.705513898 -0.8453976484 -0.9847265274 0.9003108328 0.2864647687 0.3276863448 0
-2.755219076 -0.6378264079 -1.002817732 0.9183704888 0.2118164706 0.334259522 0
-2.790970219 -0.4270339376 -1.015830084 0.9301940765 0.1418242038 0.3385629561 0
-2.81249439 -0.214063001 -1.023664243 0.9373146568 0.07109675826 0.3411546353 0
-2.819681382 0 -1.026280093 -0.9396926208 0 -0.3420201434 0
-2.81249439 0.214063001 -1.023664243 0.9373146568 -0.07109675826 0.3411546353 0
-2.790970219 0.4270339376 -1.015830084 0.9301940765 -0.1418242038 0.3385629561 0
-2.755219076 0.6378264079 -1.002817732 0.9183704888 -0.2118164706 0.334259522 0
-2.705513898 0.8453976484 -0.9847265274 0.9003108328 -0.2864647687 0.3276863448 0
-2.641941888 1.048638496 -0.9615882079 0.8783068783 -0.3555042685 0.3196775604 0
-2.564925207 1.246545759 -0.9335564284 0.8505828413 -0.4250468456 0.3095868362 0
-2.474837084 1.4380972 -0.9007670333 0.8211974275 -0.4861056511 0.2988914202 0
-2.372081151 1.622284952 -0.8633669321 0.7869284773 -0.5465418467 0.2864185424 0
-2.25732563 1.798270362 -0.8215993386 0.746502097 -0.6073806552 0.2717045432 0
-2.131029681 1.965059505 -0.7756313722 0.7073069937 -0.6583632253 0.2574386923 0
-1.993822041 2.12178838 -0.7256918755 -0.6592343573 0.712627568 -0.2399416836 0
-1.846530811 2.267782338 -0.672082252 -0.609578582 0.7610442426 -0.2218684593 0
-1.689786826 2.402177469 -0.6150321071 -0.550771863 0.8102248537 -0.2004645641 0
-1.524427735 2.524312831 -0.5548463197 -0.4923041009 0.8517803428 -0.179184039 0
-1.351335689 2.633637512 -0.4918459674 -0.4358861671 0.885908323 -0.1586495904 0
-1.171321856 2.72948003 -0.4263262901 -0.3693369847 0.919521285 -0.1344276688 0
-0.985348116 2.811419792 -0.3586373846 0.3011114515 -0.9472701289 0.1095956055 0
-0.7943534572 2.879016646 -0.2891210139 0.2298076353 -0.9696351252 0.08364313888 0
-0.5993469374 2.932020259 -0.2181444452 -0.1841175117 0.9806171324 -0.06701329389 0
-0.4012719868 2.970020696 -0.1460510591 0.1340929298 -0.9897661727 0.04880583507 0
-0.201138047 2.992730818 -0.07320826208 -0.07277618337 0.9969964863 -0.02648836451 0
-1.72618734e-16 3.000215321 -6.281612834e-17 0 1 5.551115123e-17 0
-1.678155781e-16 -3.000215321 -7.470435648e-17 -0 1 -5.551115123e-17 0
-0.1955413346 -2.992730818 -0.08706061132 -0.07075116934 -0.9969964863 -0.03150045011 0
-0.3901065015 -2.970020696 -0.1736866047 0.1303617632 0.9897661727 0.05804079644 0
-0.5826699711 -2.932020259 -0.2594213852 -0.1789943997 -0.9806171324 -0.07969344125 0
-0.7722503897 -2.879016646 -0.3438280257 0.2234131851 0.9696351252 0.09946995868 0
-0.9579305781 -2.811419792 -0.426498172 0.2927329561 0.9472701289 0.1303331092 0
-1.138729555 -2.72948003 -0.506995063 -0.3590600982 -0.919521285 -0.1598638555 0
-1.313734463 -2.633637512 -0.5849122678 -0.4237575343 -0.885908323 -0.1886690099 0
-1.482010183 -2.524312831 -0.6598334452 -0.4786056262 -0.8517803428 -0.2130889538 0
-1.642768119 -2.402177469 -0.7314074901 -0.5354465093 -0.8102248537 -0.2383961454 0
-1.795150667 -2.267782338 -0.7992525714 -0.5926169178 -0.7610442426 -0.2638500512 0
-1.938343485 -2.12178838 -0.8630061215 -0.6408910098 -0.712627568 -0.2853430618 0
-2.07173329 -1.965059505 -0.9223950893 -0.687626014 -0.6583632253 -0.3061508263 0
-2.194515026 -1.798270362 -0.9770610398 0.7257305046 0.6073806552 0.3231160386 0
-2.306077447 -1.622284952 -1.02673183 0.7650320116 0.5465418467 0.3406141969 0
-2.405974174 -1.4380972 -1.071208718 0.7983474203 0.4861056511 0.3554471725 0
-2.493555573 -1.246545759 -1.11020247 0.8269151783 0.4250468456 0.3681663578 0
-2.568429248 -1.048638496 -1.143538378 0.8538677875 0.3555042685 0.3801664326 0
-2.630232352 -0.8453976485 -1.171054892 0.875259477 0.2864647687 0.3896906263 0
-2.678554472 -0.6378264078 -1.192569286 0.8928166189 0.2118164706 0.3975075695 0
-2.713310831 -0.4270339376 -1.208043815 0.9043112126 0.1418242037 0.4026252924 0
-2.734236088 -0.214063001 -1.217360338 0.911233661 0.07109675829 0.405707365 0
-2.7412231 0 -1.220471157 -0.9135454576 0 -0.4067366431 0
-2.734236088 0.214063001 -1.217360338 0.911233661 -0.07109675829 0.405707365 0
-2.713310831 0.4270339376 -1.208043815 0.9043112126 -0.1418242037 0.4026252924 0
-2.678554472 0.6378264078 -1.192569286 0.8928166189 -0.2118164706 0.3975075695 0
-2.630232352 0.8453976485 -1.171054892 0.875259477 -0.2864647687 0.3896906263 0
-2.568429248 1.048638496 -1.143538378 0.8538677875 -0.3555042685 0.3801664326 0
-2.493555573 1.246545759 -1.11020247 0.8269151783 -0.4250468456 0.3681663578 0
-2.405974174 1.4380972 -1.071208718 0.7983474203 -0.4861056511 0.3554471725 0
-2.306077447 1.622284952 -1.02673183 0.7650320116 -0.5465418467 0.3406141969 0
-2.194515026 1.798270362 -0.9770610398 0.7257305046 -0.6073806552 0.3231160386 0
-2.07173329 1.965059505 -0.9223950893 -0.687626014 0.6583632253 -0.3061508263 0
-1.938343485 2.12178838 -0.8630061215 -0.6408910098 0.712627568 -0.2853430618 0
-1.795150667 2.267782338 -0.7992525714 -0.5926169178 0.7610442426 -0.2638500512 0
-1.642768119 2.402177469 -0.7314074901 -0.5354465093 0.8102248537 -0.2383961454 0
-1.482010183 2.524312831 -0.6598334452 -0.4786056262 0.8517803428 -0.2130889538 0
-1.313734463 2.633637512 -0.5849122678 -0.4237575343 0.885908323 -0.1886690099 0
-1.138729555 2.72948003 -0.506995063 -0.3590600982 0.919521285 -0.1598638555 0
-0.9579305781 2.811419792 -0.426498172 0.2927329561 -0.9472701289 0.1303331092 0
-0.7722503897 2.879016646 -0.3438280257 0.2234131851 -0.9696351252 0.09946995868 0
-0.5826699711 2.932020259 -0.2594213852 -0.1789943997 0.9806171324 -0.07969344125 0
-0.3901065015 2.970020696 -0.1736866047 0.1303617632 -0.9897661727 0.05804079644 0
-0.1955413346 2.992730818 -0.08706061132 -0.07075116934 0.9969964863 -0.03150045011 0
-1.678155781e-16 3.000215321 -7.470435648e-17 0 1 5.551115123e-17 0
-1.621948415e-16 -3.000215321 -8.845602282e-17 0 1 0 0
-0.1889919644 -2.992730818 -0.1004888101 0.06838146272 0.9969964863 0.03635906868 0
-0.3770404565 -2.970020696 -0.2004759669 0.1259954872 0.9897661727 0.06699298889 0
-0.5631542953 -2.932020259 -0.2994344503 0.1729992449 0.9806171324 0.09198533017 0
-0.746384996 -2.879016646 -0.3968599419 -0.2159302882 -0.9696351252 -0.1148121708 0
-0.9258460989 -2.811419792 -0.492281103 0.2829282952 0.9472701289 0.1504356431 0
-1.10058948 -2.72948003 -0.5851938068 -0.347033907 -0.919521285 -0.1845212015 0
-1.269732855 -2.633637512 -0.6751289345 -0.4095643974 -0.885908323 -0.217769253 0
-1.432372426 -2.524312831 -0.7616059285 -0.4625754329 -0.8517803428 -0.2459557205 0
-1.587746011 -2.402177469 -0.8442195295 -0.5175125141 -0.8102248537 -0.2751662848 0
-1.735024729 -2.267782338 -0.9225290128 -0.5727680837 -0.7610442426 -0.3045461922 0
-1.873421514 -2.12178838 -0.9961158884 -0.6194253058 -0.712627568 -0.3293542773 0
-2.002343623 -1.965059505 -1.06466499 -0.6645949896 -0.6583632253 -0.3533714242 0
-2.121012965 -1.798270362 -1.127762598 -0.7014232262 -0.6073806552 -0.372953345 0
-2.228838767 -1.622284952 -1.185094594 0.7394083868 0.5465418467 0.3931504132 0
-2.325389598 -1.4380972 -1.236431582 0.7716079448 0.4861056511 0.4102712219 0
-2.410037588 -1.246545759 -1.281439716 0.7992188676 0.4250468456 0.4249522099 0
-2.482403479 -1.048638496 -1.319917343 0.8252687388 0.3555042685 0.4388031721 0
-2.542136579 -0.8453976485 -1.351677995 0.845943945 0.2864647687 0.4497963743 0
-2.588840219 -0.6378264078 -1.376510762 0.8629130361 0.2118164706 0.4588190001 0
-2.622432465 -0.4270339376 -1.394372076 0.8740226353 0.1418242038 0.4647260787 0
-2.642656862 -0.214063001 -1.405125578 0.8807132265 0.0710967583 0.4682835291 0
-2.649409854 -7.475690431e-18 -1.408716207 -0.8829475929 5.551115123e-17 -0.4694715627 0
-2.642656862 0.214063001 -1.405125578 0.8807132265 -0.0710967583 0.4682835291 0
-2.622432465 0.4270339376 -1.394372076 0.8740226353 -0.1418242038 0.4647260787 0
-2.588840219 0.6378264078 -1.376510762 0.8629130361 -0.2118164706 0.4588190001 0
-2.542136579 0.8453976485 -1.351677995 0.845943945 -0.2864647687 0.4497963743 0
-2.482403479 1.048638496 -1.319917343 0.8252687388 -0.3555042685 0.4388031721 0
-2.410037588 1.246545759 -1.281439716 0.7992188676 -0.4250468456 0.4249522099 0
-2.325389598 1.4380972 -1.236431582 0.7716079448 -0.4861056511 0.4102712219 0
-2.228838767 1.622284952 -1.185094594 0.7394083868 -0.5465418467 0.3931504132 0
-2.121012965 1.798270362 -1.127762598 -0.7014232262 0.6073806552 -0.372953345 0
-2.002343623 1.965059505 -1.06466499 -0.6645949896 0.6583632253 -0.3533714242 0
-1.873421514 2.12178838 -0.9961158884 -0.6194253058 0.712627568 -0.3293542773 0
-1.735024729 2.267782338 -0.9225290128 -0.5727680837 0.7610442426 -0.3045461922 0
-1.587746011 2.402177469 -0.8442195295 -0.5175125141 0.8102248537 -0.2751662848 0
-1.432372426 2.524312831 -0.7616059285 -0.4625754329 0.8517803428 -0.2459557205 0
-1.269732855 2.633637512 -0.6751289345 -0.4095643974 0.885908323 -0.217769253 0
-1.10058948 2.72948003 -0.5851938068 -0.347033907 0.919521285 -0.1845212015 0
-0.9258460989 2.811419792 -0.492281103 0.2829282952 -0.9472701289 0.1504356431 0
-0.746384996 2.879016646 -0.3968599419 -0.2159302882 0.9696351252 -0.1148121708 0
-0.5631542953 2.932020259 -0.2994344503 0.1729992449 -0.9806171324 0.09198533017 0
-0.3770404565 2.970020696 -0.2004759669 0.1259954872 -0.9897661727 0.06699298889 0
-0.1889919644 2.992730818 -0.1004888101 0.06838146272 -0.9969964863 0.03635906868 0
-1.621948415e-16 3.000215321 -8.843211736e-17 -0 1 1.110223025e-16 0
-1.55783908e-16 -3.000215321 -9.957203815e-17 0 1 5.551115123e-17 0
-0.1815218445 -2.992730818 -0.1134274373 0.0656786085 0.9969964863 0.04104054953 0
-0.3621375085 -2.970020696 -0.2262886302 0.1210153738 0.9897661727 0.07561879823 0
-0.5408949883 -2.932020259 -0.3379887008 0.1661612551 0.9806171324 0.1038290758 0
-0.7168832895 -2.879016646 -0.4479583965 0.2073954007 0.9696351252 0.1295950296 0
