# .PCD v0.7 - Point Cloud Data file format
VERSION 0.7
FIELDS x y z normal_x normal_y normal_z rgb
SIZE 4 4 4 4 4 4 4
TYPE F F F F F F F
COUNT 1 1 1 1 1 1 1
WIDTH 511
HEIGHT 1
VIEWPOINT 0 0 0 1 0 0 0
POINTS 511
DATA ascii
4.323631923 -3.441993335 -3.761810787 -0.3553476179 0.1256917589 0.9262449202 1.102025954e-39
4.221586494 -3.439187798 -3.793908017 0.3325608003 -0.1306641988 -0.9339861783 1.377532442e-39
4.120448911 -3.438051415 -3.823243291 0.3138572622 -0.1355092831 -0.9397504207 1.19386145e-39
4.024023483 -3.438494488 -3.850048903 0.2997551945 -0.1408468524 -0.9435618621 1.19386145e-39
3.923903034 -3.437355885 -3.876909675 0.2876726357 -0.1457735209 -0.9465698787 1.836709923e-40
3.820454126 -3.433573565 -3.904643972 0.2783326449 -0.1511484342 -0.9485173112 1.836709923e-40
3.720575317 -3.432196191 -3.931522671 0.272313767 -0.1569190332 -0.9493269349 1.010190458e-39
3.625948721 -3.434694281 -3.95661606 0.267964841 -0.1627331859 -0.9495855697 1.285696946e-39
3.521325698 -3.433605045 -3.985681969 -0.2650252085 0.1692258596 0.9492756435 1.102025954e-39
3.419870647 -3.432223739 -4.014956083 -0.2630423399 0.1756601285 0.9486581295 7.346839693e-40
3.322688188 -3.430558627 -4.043973518 -0.261245819 0.1816797045 0.9480206258 6.428484731e-40
3.218506224 -3.422064959 -4.077558417 -0.2592683413 0.1872907983 0.947471416 5.510129769e-40
3.114013179 -3.415224906 -4.111685949 -0.256002301 0.1923051031 0.9473550386 4.591774808e-40
3.006306394 -3.404446314 -4.147703974 -0.2513512853 0.1962572053 0.9477898716 2.755064885e-40
2.898732014 -3.393500645 -4.18298088 -0.2451124184 0.1991433768 0.9488212781 1.836709923e-40
2.800358881 -3.392472782 -4.211730544 -0.2377056079 0.2020375145 0.9500930937 9.183549616e-41
2.700482058 -3.391085816 -4.239056041 -0.2293732556 0.2043914611 0.9516365064 1.836709923e-40
2.603210386 -3.392785319 -4.263045525 -0.2206573044 0.206987431 0.9531351202 0
2.500329466 -3.387158362 -4.288074274 -0.2113838703 0.2087045427 0.9548608659 1.836709923e-40
2.3999065 -3.384592961 -4.309991062 0.2025066787 -0.2107932245 -0.9563248724 1.836709923e-40
2.301804497 -3.384596015 -4.329506318 -0.1940652798 0.213524244 0.957468571 9.183549616e-41
2.19842275 -3.378088153 -4.350457121 -0.1856647048 0.2161279808 0.9585495883 9.183549616e-41
2.097969479 -3.375661869 -4.369448692 -0.1772813837 0.2201385988 0.9592238051 2.755064885e-40
2.000192586 -3.379478061 -4.386429055 0.1678561106 -0.2259542518 -0.9595670911 2.755064885e-40
1.903639123 -3.383864714 -4.403024224 0.1570703837 -0.2326515452 -0.9597927657 9.183549616e-41
1.807951885 -3.392493015 -4.418726242 0.1434351397 -0.2410637945 -0.9598513467 9.183549616e-41
1.700545236 -3.391844744 -4.438659841 0.1253957379 -0.2498945948 -0.9601190553 1.836709923e-40
1.606877034 -3.386274249 -4.456790518 0.1069153986 -0.2578643564 -0.960247401 9.183549616e-41
1.50460195 -3.377998806 -4.475810786 -0.08288895383 0.2670992811 0.9600975968 1.836709923e-40
1.404867293 -3.372862846 -4.491202922 -0.05386188053 0.27712787 0.9593221781 2.755064885e-40
1.304463521 -3.367267544 -4.50315588 -0.01763768317 0.2879787638 0.9574743567 1.836709923e-40
1.205396778 -3.377531819 -4.504844488 -0.02742527436 -0.3010316194 -0.9532197115 2.755064885e-40
1.104653716 -3.382354501 -4.501759741 0.07818944564 0.3131094584 0.9464929359 9.183549616e-41
1.003833615 -3.385167738 -4.491989021 0.1333777034 0.3242619498 0.9365172589 9.183549616e-41
0.9044163588 -3.385431998 -4.475507319 0.189549745 0.3331036291 0.9236410918 9.183549616e-41
0.8043642325 -3.388030562 -4.449350109 0.2506508926 0.3412297563 0.9059450223 4.591774808e-40
0.7037143693 -3.392460626 -4.413182972 -0.3143660549 -0.3474798054 -0.8834204935 3.673419846e-40
0.6015618283 -3.3990003 -4.365903385 -0.3781681363 -0.3511968451 -0.8565335 9.183549616e-41
0.4984366042 -3.407158283 -4.307232202 -0.4428495811 -0.3518484038 -0.8246738442 9.183549616e-41
0.4037388226 -3.408096239 -4.246770382 -0.5012427403 -0.3494255246 -0.7916170274 9.183549616e-41
0.3040599872 -3.414801621 -4.169867535 0.5624610086 0.3430658917 0.7522921027 9.183549616e-41
-3.139646427 4.021420983 -1.455961266 -0.443740711 -0.1931364999 0.8750956941 2.479558396e-39
1.072981524 7.957340218 -3.135176508 0.5526878899 0.2800647617 0.784920267 4.224432823e-39
-1.719787567 6.980064661 -1.776901467 -0.6191871298 0.3192978493 -0.7173954152 5.510129769e-40
-0.3308438784 6.765173862 -2.25997673 0.02463776275 0.450822625 0.8922734678 5.510129769e-40
1.346075095 7.548444555 -3.069647097 -0.4583567409 -0.4879676338 -0.7428301868 4.224432823e-39
0.5270003736 7.522286613 -2.694403768 0.3169486356 0.3363050439 0.8868159222 4.224432823e-39
-0.3795611727 7.436864302 -2.396509656 0.3663495871 -0.06315784525 0.9283313345 4.132597327e-39
3.764310303 -5.860612894 -3.079841494 0.2298149016 -0.7271193489 -0.6469022828 1.102025954e-39
-0.6355718269 -3.610789038 -2.202522445 -0.6230244877 -0.2558486655 -0.7391765338 7.346839693e-40
-0.7129832181 -3.606768999 -2.144954866 0.5326004479 0.2616469939 0.8049084504 7.346839693e-40
-0.8080303317 -3.611865546 -2.096449785 0.4315866304 0.2623871596 0.8630677604 7.346839693e-40
-0.8995170792 -3.609196226 -2.071958874 -0.3537927256 -0.2592468538 -0.8986777932 3.673419846e-40
-0.9941530079 -3.606348879 -2.060607478 0.2882632346 0.2561208572 0.9226626762 9.183549616e-41
-1.089356039 -3.60133727 -2.057745909 0.2407923934 0.2523270974 0.937203318 8.265194654e-40
-1.193017823 -3.606474575 -2.059046446 0.1923969823 0.2497272707 0.9490098479 8.265194654e-40
-1.291078856 -3.600329821 -2.066306009 0.167468697 0.2472347067 0.9543737398 1.653038931e-39
-1.390407021 -3.59819643 -2.073803558 -0.1520129235 -0.246268452 -0.9572063104 2.020380915e-39
-1.486733442 -3.587981511 -2.082424365 -0.1481191255 -0.2488851205 -0.9571399696 1.377532442e-39
-1.585001207 -3.585470581 -2.088431821 0.1508395746 0.2512765445 0.9560897034 1.653038931e-39
-1.683698914 -3.586190436 -2.090758468 0.163978739 0.2550496517 0.9529221628 1.469367939e-39
-1.781827023 -3.586111247 -2.0885827 0.1877739133 0.2600333872 0.9471660863 1.19386145e-39
-1.882839423 -3.592373354 -2.078050873 0.2227466849 0.2657622687 0.9379522007 9.183549616e-40
-1.977425933 -3.588916755 -2.064782062 0.2629245648 0.2720523329 0.9256663553 4.591774808e-40
-2.07491557 -3.590844971 -2.039489675 0.3094195814 0.2778969483 0.9094134422 4.591774808e-40
-2.172519699 -3.594587761 -2.002997431 0.3600292937 0.2828107567 0.8890427344 4.591774808e-40
-2.274913034 -3.60396243 -1.951511293 -0.4168204272 -0.2857101712 -0.8629197121 1.561203435e-39
-2.37903691 -3.614885244 -1.887180205 -0.4750779666 -0.2892373713 -0.8310491373 1.285696946e-39
-2.479118529 -3.622288857 -1.813088159 0.5302420499 0.2943478436 0.7951117629 1.285696946e-39
-2.573206569 -3.626475102 -1.731086431 0.5795630724 0.303139612 0.7564476325 1.19386145e-39
-2.660920365 -3.627913471 -1.644019803 0.6222122417 0.3170151141 0.7157886167 8.265194654e-40
-4.898031604 1.388448958 -1.642607622 -0.584627319 0.2552748292 -0.7700945782 4.591774808e-40
-3.613544189 1.4389571 -2.398940687 -0.3792194363 0.3647810712 -0.8503689724 4.591774808e-40
-0.9253018262 6.433030918 -2.076122126 0.1094703264 0.4511924212 0.8856871043 5.510129769e-40
1.173955391 7.961062718 -3.205475026 -0.5676872306 -0.3021685555 -0.7657841552 4.224432823e-39
-2.213379129 1.18616989 -2.841644085 0.08408481362 -0.3380294319 0.9373717764 2.755064885e-40
-2.313099503 1.183312865 -2.834994798 0.09813744531 -0.3345027202 0.9372710238 2.755064885e-40
-2.91208997 1.735757645 -2.534879658 -0.2172246268 0.4327259011 -0.8749638599 2.755064885e-40
-4.316720775 1.710318721 3.741802586 -0.2660427266 0.7376763931 -0.6205278452 5.510129769e-40
-0.1119163981 0.3530255836 -3.276658688 -0.2141753437 0.3548647245 -0.9100549156 5.510129769e-40
-2.836530338 3.576413799 -1.412134304 -0.394075459 -0.3358050335 0.8555346352 8.265194654e-40
-3.210604198 1.30643777 -2.62400757 0.2912243386 -0.3327617377 0.8969158325 2.755064885e-40
-1.919460221 6.103596484 -1.65137383 0.3811933022 0.2745581674 0.8827850696 5.510129769e-40
-0.835635042 6.148067084 -1.912332164 -0.0942264837 0.6816733754 0.7255637664 5.510129769e-40
0.5907034134 0.63647497 -3.271540054 0.09384193287 -0.4397338297 0.8932120973 6.428484731e-40
0.491347718 0.6349921108 -3.269504684 0.1039739555 -0.4257992416 0.8988239107 6.428484731e-40
-5.250798091 -2.479056277 0.2939872182 0.7512630112 0.659913929 -0.0108394778 2.755064885e-40
0.393045395 0.62942884 -3.26743558 -0.115907104 0.4125627755 -0.9035250409 6.428484731e-40
0.2926484569 0.630725483 -3.260765955 -0.1270556127 0.3960122642 -0.9094125345 6.428484731e-40
0.192562464 0.6305637045 -3.252220308 -0.1385379818 0.3801559177 -0.9144882207 3.673419846e-40
-3.809455932 1.711962746 -2.149210864 -0.3827419455 0.3794439253 -0.842336578 4.591774808e-40
-0.006584873985 1.044042808 -3.101812214 0.1188026971 -0.4049195655 0.9066013814 2.755064885e-40
0.09388877317 0.6271244601 -3.242003672 -0.1496973224 0.365752336 -0.9185945462 9.183549616e-41
-0.00580463906 0.6263934537 -3.228848313 -0.1585553174 0.3504963085 -0.9230452584 2.755064885e-40
-0.1053871813 0.6254908721 -3.213443733 -0.1647009939 0.3364676407 -0.9271801925 2.755064885e-40
-0.206548534 0.6266384957 -3.195830422 -0.1673889423 0.3231344374 -0.9314317352 1.010190458e-39
-0.3102873395 0.6296232693 -3.176219071 0.1671387037 -0.3104650507 0.9357756708 1.010190458e-39
-0.4089649539 0.6271390691 -3.157768054 0.1652989215 -0.300816424 0.9392474358 4.591774808e-40
-1.406701982 6.983056438 -1.975518383 -0.5183190589 0.1723483539 -0.8376403751 5.510129769e-40
-0.5103004739 0.6271300643 -3.138991399 0.1597873667 -0.2914448852 0.943147855 6.428484731e-40
-4.933667469 4.608784505 -1.503447399 -0.5911367829 -0.09454687483 -0.8010107317 1.836709923e-40
-3.026154657 3.441795098 -1.525245136 -0.3033943551 -0.2872343558 0.9085418483 8.265194654e-40
-3.600635985 7.60829698 -6.880192799 0.791960259 0.1349708241 0.5954677361 8.265194654e-40
-2.227848019 5.652719378 -1.338570481 0.1675736863 0.397494332 0.9021736616 5.510129769e-40
-3.606085752 7.754193053 -6.893443546 0.7784377007 0.1550548615 0.608270282 8.265194654e-40
-0.6283187372 6.597628484 -2.178304673 0.0505652581 0.4516576989 0.8907572496 5.510129769e-40
-2.61032165 1.313275924 -2.756324662 -0.1473897789 0.3437315316 -0.9274291818 2.755064885e-40
-0.6095807992 0.6249835019 -3.121467309 0.1528313214 -0.2833275753 0.946767169 5.510129769e-40
-0.7091275337 0.6229801036 -3.105438223 0.1438042133 -0.2756034114 0.9504541587 3.673419846e-40
-4.990553358 2.269725929 -1.515136249 -0.4405470975 -0.08387861033 -0.8938023459 4.591774808e-40
-5.095345602 2.265422891 -1.46313693 0.4672147997 0.1088645105 0.877416007 4.591774808e-40
-0.8090496807 0.6217614924 -3.090873159 0.1330437307 -0.2683421081 0.9540921752 8.265194654e-40
-0.9088054263 0.620452691 -3.077481005 0.1220328592 -0.2619529939 0.9573341163 1.010190458e-39
-1.008826141 0.6193021147 -3.0661113 -0.1101261271 0.2553188473 -0.9605646893 1.469367939e-39
4.914167646 -3.314812948 -3.490086715 0.5394873022 -0.09280106009 -0.8368640356 8.265194654e-40
4.825287789 -3.313526029 -3.547669135 0.5097221075 -0.0942887647 -0.8551567119 8.265194654e-40
4.71636387 -3.305812636 -3.610509997 -0.4735796962 0.09797227316 0.8752849279 9.183549616e-40
4.615461915 -3.302126309 -3.661340224 -0.4413799398 0.1028272611 0.891409167 6.428484731e-40
4.517106786 -3.300123223 -3.704758915 -0.4118471527 0.1082414432 0.904801477 3.673419846e-40
4.416804913 -3.29767951 -3.744424576 -0.3848168356 0.1135336931 0.9159836808 5.510129769e-40
4.311041784 -3.292162518 -3.782337971 -0.3582856079 0.1193986949 0.9259456652 1.19386145e-39
4.20883684 -3.288818635 -3.815363627 0.3356774196 -0.1253421149 -0.93360057 1.19386145e-39
4.106260049 -3.285032233 -3.846576222 0.3179386287 -0.1311187914 -0.9390010069 9.183549616e-40
4.010232091 -3.287677047 -3.873754942 0.304336442 -0.1369614932 -0.9426668974 9.183549616e-41
3.911274888 -3.28606968 -3.901360893 0.2934546545 -0.1425611961 -0.9452833814 9.183549616e-41
3.805373229 -3.277720864 -3.931855702 0.2853690195 -0.1484271335 -0.9468547453 6.428484731e-40
3.702586997 -3.273995494 -3.960975292 0.279843639 -0.1539797002 -0.9476169003 1.19386145e-39
3.606590888 -3.276301676 -3.987625763 0.2759362953 -0.1590776902 -0.9479205924 1.010190458e-39
3.506764745 -3.277408419 -4.016632813 0.2734042375 -0.1645733014 -0.9477160711 4.591774808e-40
3.4100312 -3.279389221 -4.045498429 0.2712059405 -0.1696267231 -0.9474566548 1.836709923e-40
3.313268225 -3.277571562 -4.07586291 -0.269036822 0.1739947427 0.9472829661 1.836709923e-40
3.212626648 -3.273924681 -4.108536822 -0.2659367738 0.1777811 0.9474552828 2.755064885e-40
3.104919714 -3.262926191 -4.145207145 -0.2616366774 0.1802920387 0.9481777417 0
3.000616191 -3.255641336 -4.179537098 -0.2557195836 0.1821213144 0.949441584 0
2.895536704 -3.248140258 -4.21305735 -0.2485185867 0.1828952085 0.9512033719 2.755064885e-40
2.796833437 -3.243115571 -4.242230207 -0.2405799243 0.1833652338 0.953151872 3.673419846e-40
2.697451014 -3.245256168 -4.268265001 -0.2319514275 0.1846198641 0.9550466172 9.183549616e-41
2.60279801 -3.2497562 -4.290777182 -0.2235485965 0.1863973826 0.9567037372 2.755064885e-40
2.497181317 -3.241681603 -4.316194332 -0.2144564614 0.1868669967 0.9586913746 6.428484731e-40
2.394363556 -3.236110444 -4.338774912 -0.2060631016 0.1881440601 0.9602811103 6.428484731e-40
2.296080686 -3.235893853 -4.358258165 0.1985446477 -0.1907887221 -0.9613426478 2.755064885e-40
2.197462938 -3.235996233 -4.37699919 0.1916379431 -0.1942177872 -0.9620573527 0
2.096416847 -3.233085115 -4.396495495 -0.1845722468 0.1982839692 0.9626092422 1.836709923e-40
1.999642514 -3.236462369 -4.414227317 -0.1767894648 0.2042385596 0.9628250599 2.755064885e-40
1.900926616 -3.237288031 -4.433165881 -0.1674211436 0.2110196831 0.9630373066 2.755064885e-40
1.804523806 -3.241387929 -4.451498128 -0.1558478385 0.2191164865 0.9631715406 5.510129769e-40
1.706110886 -3.242992701 -4.471060661 -0.1407946693 0.2279305682 0.9634440914 7.346839693e-40
1.605271158 -3.240552757 -4.491677586 -0.1218095291 0.2368473015 0.9638805913 8.265194654e-40
1.503488938 -3.233385379 -4.512216244 -0.09922453268 0.2465471674 0.9640378552 1.010190458e-39
1.403702961 -3.228978652 -4.529872028 -0.07062112568 0.2563317891 0.9640055345 9.183549616e-40
1.302890105 -3.224448858 -4.543805872 -0.03571250474 0.267708524 0.9628378696 7.346839693e-40
1.204505072 -3.226607312 -4.550906012 0.007221334491 0.2797179313 0.9600550668 5.510129769e-40
1.104450432 -3.236145465 -4.549269503 -0.05821478254 -0.2935060874 -0.9541830096 5.510129769e-40
1.000813176 -3.248638412 -4.538829435 0.1169050978 0.3065797936 0.9446385702 1.836709923e-40
0.8993200223 -3.250369413 -4.523838053 0.1746522774 0.3175404042 0.9320218204 1.836709923e-40
0.8001233891 -3.248802125 -4.501968261 0.2350885215 0.3266995497 0.9154238315 1.836709923e-40
0.7009582912 -3.249661623 -4.470354557 0.2977812809 0.3341114942 0.894257132 9.183549616e-41
0.5976293029 -3.256505041 -4.424729776 0.3636274408 0.3405022022 0.867083234 0
0.4976925962 -3.26069652 -4.371641796 -0.4270434173 -0.3437241502 -0.8363537698 1.010190458e-39
0.3973107969 -3.266638 -4.307066223 -0.4906782924 -0.344180294 -0.8004840652 1.010190458e-39
0.2965366117 -3.273649692 -4.230493138 0.5534258845 0.3413707021 0.7597274736 7.346839693e-40
-1.110744048 0.6216135167 -3.05571991 -0.09758126522 0.2495730009 -0.9634268077 1.19386145e-39
3.184569578 1.48839489 -2.902451764 0.1295254034 0.3259347284 -0.9364772943 5.510129769e-40
-3.118107236 3.012867486 -1.656976547 0.1126320299 0.3548294419 -0.9281218094 8.265194654e-40
0.1630958954 6.809183502 -2.268349896 -0.01399755064 0.5946004279 0.803899496 4.224432823e-39
1.241131407 7.545672244 -3.004545152 0.4366283977 0.4818524359 0.7597196012 4.224432823e-39
0.4228226029 7.513007133 -2.657738287 0.3062786455 0.3026736838 0.9025419838 4.224432823e-39
-0.4770537436 7.428777386 -2.362650976 0.3854061352 -0.1111305738 0.9160306253 4.132597327e-39
-1.210770139 0.6215017265 -3.047811697 0.08598109462 -0.2437379076 0.9660222998 6.428484731e-40
-1.311873836 0.624331149 -3.041001583 0.07525134769 -0.2388010264 0.9681483897 0
-0.7192428988 -3.46451701 -2.21369574 0.5488079897 0.3154958631 0.7741267021 7.346839693e-40
-0.8021506762 -3.458742843 -2.169663728 0.4626957642 0.3184414101 0.827349804 7.346839693e-40
-0.8927246245 -3.45423879 -2.140529848 -0.3859356003 -0.3179435846 -0.8660055366 2.755064885e-40
-0.99355063 -3.458094891 -2.120020552 -0.3075872069 -0.3154773942 -0.8976993505 2.755064885e-40
-1.088042852 -3.451635578 -2.114954653 0.2579115296 0.3116240317 0.9145338188 5.510129769e-40
-1.194266746 -3.461249595 -2.11116535 0.2022848055 0.3050446258 0.9306065945 1.102025954e-39
-1.293604846 -3.458187292 -2.117115258 0.1710936713 0.300974196 0.9381585628 1.469367939e-39
-1.393082727 -3.455903794 -2.12384385 -0.1524278557 -0.3003782879 -0.9415618052 8.265194654e-40
-1.490597766 -3.448720665 -2.132111537 -0.144068447 -0.2995374601 -0.9431445237 9.183549616e-40
-1.589073654 -3.441702087 -2.138813148 0.1470417829 0.3011088506 0.9421847877 1.102025954e-39
-1.685126983 -3.437759823 -2.141678095 0.1572309908 0.3026046133 0.9400579044 1.19386145e-39
-1.782764208 -3.437258518 -2.139059324 0.1773134811 0.304800173 0.9357653466 1.010190458e-39
-1.883830011 -3.444205443 -2.127678169 0.2083175726 0.3071366427 0.9285854143 1.010190458e-39
-1.983874965 -3.449012142 -2.10934207 -0.2490571743 -0.3098046198 -0.9176010143 4.591774808e-40
-2.081970903 -3.450378216 -2.082192186 0.2937519394 0.3137275773 0.9029312296 4.591774808e-40
-2.176995005 -3.449627785 -2.047190155 0.3393603911 0.3197637311 0.8846387292 4.591774808e-40
-2.275302576 -3.455252866 -1.999216923 -0.3894525923 -0.3256067808 -0.8615723433 1.561203435e-39
-2.379629297 -3.46670213 -1.936396629 -0.4421966178 -0.3321493044 -0.833150041 1.561203435e-39
-2.476185661 -3.470995718 -1.869753311 0.4890222358 0.3427599824 0.8021052595 1.285696946e-39
-2.573197655 -3.476053193 -1.791764929 0.5325240117 0.3572337179 0.7673345084 1.102025954e-39
-2.665945235 -3.478573513 -1.708786583 0.5701395959 0.3773203653 0.7297740631 8.265194654e-40
-2.77182258 -3.49488371 -1.593575487 0.6134739504 0.4029348327 0.679185713 8.265194654e-40
-2.881494658 -3.519498395 -1.45369982 0.654841704 0.4401065964 0.6144009493 9.183549616e-40
-1.410478344 0.6202611981 -3.037550536 -0.06630007048 0.2330665791 -0.9701980573 4.591774808e-40
-1.509736811 0.6169204052 -3.035479755 -0.05895870829 0.227816198 -0.9719175123 4.591774808e-40
-1.609448648 0.6161168316 -3.034133751 -0.05368974665 0.2239207971 -0.9731273749 5.510129769e-40
-2.414111013 1.183321832 -2.825487792 0.1149816273 -0.3308864022 0.9366394259 2.755064885e-40
-2.514865173 1.18235796 -2.814028896 0.1338062808 -0.3265376667 0.935665021 2.755064885e-40
-4.514844671 3.0069814 -1.75698761 0.1839808175 -0.01176272246 0.9828594493 1.836709923e-39
-4.492330687 -2.775216543 1.758741578 -0.540708377 -0.7495769068 0.381796951 2.755064885e-40
-3.168789071 -2.346396518 3.071342689 0.1823050416 0.5733136932 -0.7987967708 2.755064885e-40
-2.81170697 5.050283432 -1.068723953 -0.3889621056 0.006438799029 0.9212312534 2.479558396e-39
-2.741982752 3.570759395 -1.364651639 -0.4147952171 -0.3764524555 0.8283890852 8.265194654e-40
-1.709230049 0.6154647803 -3.033669997 -0.05083573565 0.2208680882 -0.9739779338 1.836709923e-40
-3.71725638 2.860534713 -1.767008223 -0.00114586526 -0.1749266748 0.9845807968 2.755064885e-40
-5.203058297 2.555220815 -1.490220191 -0.444249419 -0.1151636064 -0.888470482 4.591774808e-40
-3.819530863 3.154357037 -1.763509595 -0.05674572301 -0.1124340607 0.9920375522 1.744874427e-39
-1.809216572 0.6149134928 -3.033703948 -0.0507177257 0.2188665952 -0.9744357987 0
-1.908782587 0.6130975234 -3.034054529 -0.05383495687 0.2174027975 -0.9745962349 0
-2.008664621 0.612583821 -3.033470692 -0.06037458716 0.2175386786 -0.9741826484 0
-4.310328328 1.699287913 -1.886387027 0.4289420022 -0.2846783506 0.8573021611 4.591774808e-40
-4.415388633 2.860545907 -1.76201388 0.1666892465 -0.0117442133 0.9859395359 4.591774808e-40
-3.425638761 3.882301558 -1.604486436 -0.3228545151 -0.1292924931 0.9375758174 1.836709923e-40
-4.716483168 3.733241959 -1.656444839 0.2838792937 -0.07422550924 0.9559828034 1.836709923e-40
-3.823517047 3.445554095 -1.747615642 -0.1050984192 -0.09858371795 0.9895633243 2.755064885e-40
-3.72374714 3.445743865 -1.730961567 -0.1379744665 -0.1135079276 0.9839100553 8.265194654e-40
-3.521201373 4.613348578 -1.55133091 0.5351471922 0.02065174724 -0.8445063576 1.836709923e-40
-2.108387139 0.6121418369 -3.031854229 -0.07067513419 0.2186024408 -0.9732512514 0
-2.20785062 0.6111994871 -3.028461779 -0.08448971708 0.2201927752 -0.9717904246 0
-1.103650809 6.993027169 -2.129237977 -0.416934659 0.04138091284 -0.9079940034 5.510129769e-40
-2.61530652 1.180818047 -2.800398525 -0.1541082763 0.3221350582 -0.9340661879 2.755064885e-40
-2.307168138 0.6099247726 -3.022650711 0.1015822013 -0.2218694508 0.9697705931 0
-2.830765551 3.436562047 -1.449289573 0.3368356216 0.3650304354 -0.8679254261 4.591774808e-40
-0.05048049193 7.723502529 -2.523611387 -0.4516309974 0.1097617694 -0.8854274652 4.132597327e-39
-4.117126992 3.008971107 -1.784797149 -0.05395629337 0.0606465004 -0.9966999149 1.836709923e-39
-5.108250724 3.143629767 -1.585377926 -0.3937177072 0.02930568599 -0.9187641394 1.836709923e-40
-5.122888527 3.728398607 -1.493554249 0.4476536676 -0.1268558696 0.8851631388 1.836709923e-39
-2.81085716 1.31239813 -2.723750347 0.1931102321 -0.336948794 0.9215063475 2.755064885e-40
-2.71221013 1.314663312 -2.740522447 -0.1695750786 0.3404680453 -0.9248382577 2.755064885e-40
-3.510850203 1.299666133 -2.509450296 0.3591477926 -0.3372644012 0.8702100819 4.591774808e-40
-2.717307771 1.181812156 -2.783135596 -0.1763211028 0.3179283614 -0.9315752389 2.755064885e-40
-4.89479445 2.270352468 -1.558840703 -0.4158287125 -0.06007575573 -0.9074565474 4.591774808e-40
-2.405822658 0.6071402844 -3.014100263 0.1214023655 -0.2226666947 0.9673060574 0
-2.505223224 0.6059312609 -3.00125695 -0.1441841652 0.2236920245 -0.9639360999 0
-2.6068107 0.606723626 -2.983400809 -0.1686049404 0.2244019035 -0.9598000624 0
5.025356248 -3.181076788 -3.416708123 -0.5732800298 0.08770380314 0.8146521038 7.346839693e-40
4.912280788 -3.171278982 -3.501044061 -0.539098057 0.08663280088 0.8377756518 5.510129769e-40
4.813246662 -3.16672115 -3.566335666 0.5082284318 -0.08831649544 -0.856682005 4.591774808e-40
4.710536032 -3.162012264 -3.626629182 0.4752069794 -0.09224126318 -0.8750256431 4.591774808e-40
4.605711579 -3.155406122 -3.681042707 0.4428518752 -0.09722840989 -0.8913073841 1.836709923e-40
4.508183285 -3.153522466 -3.725335447 0.4142123668 -0.1028324465 -0.9043525879 1.836709923e-40
4.404562697 -3.148506741 -3.768034976 0.3864278208 -0.1090450022 -0.9158508213 0
4.303992264 -3.145819781 -3.804826201 0.3619931595 -0.1152825115 -0.9250248078 0
4.202584812 -3.142450904 -3.838901835 0.3411836785 -0.1216836739 -0.9320873248 9.183549616e-41
4.100752781 -3.138698861 -3.870843637 0.3243461281 -0.1275748307 -0.9372962455 1.836709923e-40
4.005852681 -3.139994953 -3.898382419 0.3111934149 -0.1334476957 -0.9409305878 0
3.903121183 -3.135695808 -3.928283973 0.3003966884 -0.1393636954 -0.9435780784 2.755064885e-40
3.797150948 -3.129134376 -3.959326885 0.2925467543 -0.1453615325 -0.9451383081 1.010190458e-39
3.694854949 -3.124779583 -3.989094036 0.2869670527 -0.1508007764 -0.9459963195 8.265194654e-40
3.596134121 -3.123133768 -4.017966398 0.2828707793 -0.1557307278 -0.9464312245 2.755064885e-40
3.497325179 -3.121997247 -4.047676344 0.2798883019 -0.160041985 -0.9465987014 2.755064885e-40
3.39907697 -3.121367474 -4.077973176 -0.2771496141 0.1636068839 0.9467950565 3.673419846e-40
3.300607202 -3.120730173 -4.108964907 -0.2738722424 0.1663723982 0.9472667101 2.755064885e-40
3.199415576 -3.116694078 -4.141793834 -0.2695459401 0.1682065237 0.9481832901 1.836709923e-40
3.094900694 -3.109618297 -4.176041394 -0.2638559907 0.1690293063 0.949636304 3.673419846e-40
2.993593274 -3.105721595 -4.207721745 -0.2569947947 0.1691539371 0.9514938891 4.591774808e-40
2.892070015 -3.101968815 -4.238097961 -0.2492073279 0.1685676395 0.9536669537 7.346839693e-40
2.791168398 -3.097086244 -4.266716288 -0.2408465 0.167743177 0.9559577344 3.673419846e-40
2.695772476 -3.101455202 -4.29042916 -0.2328555224 0.1680949295 0.9578738959 3.673419846e-40
2.603842225 -3.107849171 -4.311408519 -0.2251786893 0.169145551 0.9595229755 1.836709923e-40
2.502979835 -3.106362289 -4.334240979 0.2172656344 -0.1697785033 -0.9612340526 4.591774808e-40
2.399613453 -3.10089637 -4.356799233 0.2098085611 -0.1705586837 -0.9627513194 7.346839693e-40
2.299160983 -3.098575698 -4.377216001 0.2033598016 -0.1728331637 -0.9637289498 5.510129769e-40
2.200491647 -3.099075668 -4.396442179 0.1973593335 -0.1764471644 -0.9643213633 1.836709923e-40
2.099700322 -3.096785494 -4.416563068 0.1914782847 -0.1807771841 -0.9647049685 1.010190458e-39
2.001226108 -3.097625843 -4.436134313 -0.1851672161 0.1861740962 0.9649105181 1.102025954e-39
1.902823353 -3.098635368 -4.456331032 -0.1775077339 0.1928087524 0.96504704 1.102025954e-39
1.806080363 -3.102640112 -4.476461714 -0.1670463298 0.200808111 0.9652831845 1.102025954e-39
1.705522573 -3.10127905 -4.498800317 -0.1536463428 0.2093644672 0.9656911107 8.265194654e-40
1.605039771 -3.098603243 -4.521620094 -0.135842456 0.2180712687 0.9664324854 9.183549616e-40
1.503142533 -3.092209863 -4.544124085 -0.1143658273 0.2275897035 0.9670177787 1.19386145e-39
1.404848701 -3.09216962 -4.562731889 -0.08598772506 0.2378646178 0.9674846431 1.377532442e-39
1.302500074 -3.085118543 -4.580084063 -0.05135445722 0.2484192489 0.9672903372 1.19386145e-39
1.203264378 -3.079195933 -4.591845077 -0.01302564502 0.2586575346 0.965881262 8.265194654e-40
1.104743377 -3.084604477 -4.594757787 0.03585204192 0.2716297067 0.9617338163 1.836709923e-40
1.003128587 -3.093020443 -4.589382496 -0.09218711577 -0.2850402993 -0.9540720955 9.183549616e-41
0.8991642081 -3.104199354 -4.574374318 0.1545373974 0.2982723417 0.9418873622 9.183549616e-41
0.7962069967 -3.108898672 -4.55251729 0.2176993362 0.3095462296 0.9256285058 1.836709923e-40
0.6991319265 -3.105973718 -4.52584233 0.2781067562 0.3183671101 0.9062554912 3.673419846e-40
0.5985899458 -3.109445256 -4.486109715 0.3430023001 0.326828814 0.8806431448 4.591774808e-40
0.5021875218 -3.109787545 -4.43951376 -0.4050287884 -0.3329335151 -0.8515321222 4.591774808e-40
0.3913734692 -3.124829304 -4.367238101 -0.4775801341 -0.337456336 -0.8111969162 4.591774808e-40
0.2893267032 -3.132374483 -4.291027101 0.5418152201 0.3377579587 0.7696465609 3.673419846e-40
0.1873300575 -3.140541829 -4.20121996 0.6048366299 0.3349802108 0.7224686218 3.673419846e-40
-2.707255445 0.605844266 -2.962167375 -0.193141177 0.2235381976 -0.9553675523 2.755064885e-40
-3.925542285 4.031312281 -1.703597272 -0.1471779955 0.009943438688 0.9890600415 1.836709923e-40
-0.7920979099 7.145174006 -2.262268094 -0.3572812245 0.01955697544 -0.9337920814 4.132597327e-39
-2.718644044 -2.638171941 2.893856326 0.2231909152 0.5852180258 -0.7795547945 1.836709923e-40
0.3258945338 7.508218345 -2.630657798 0.3019091804 0.2647410198 0.9158400729 4.224432823e-39
-0.5772400178 7.421382387 -2.323763951 -0.4091421891 0.1626909048 -0.8978498419 4.132597327e-39
-3.600652016 7.461232184 -6.863099959 0.8032181647 0.1155987111 0.5843607771 8.265194654e-40
-2.80966624 0.6054317858 -2.936470178 -0.2177535025 0.221335145 -0.9505757023 2.755064885e-40
-0.7251937404 -3.320332132 -2.294082599 0.5667298854 0.3533313361 0.7442944336 1.19386145e-39
-0.8095543422 -3.316796038 -2.242786068 -0.4796068379 -0.3597292316 -0.8003575207 1.19386145e-39
-0.8972260028 -3.309756285 -2.211937894 -0.4021204253 -0.3616474484 -0.8411363068 5.510129769e-40
-0.9891236501 -3.302547153 -2.193694965 0.3358837989 0.3599166932 0.8704263597 9.183549616e-41
-1.088097384 -3.298741867 -2.183717018 0.2756307841 0.3583531604 0.8919701134 8.265194654e-40
-1.192815566 -3.30837145 -2.17584899 0.2193807408 0.3515305517 0.9101089835 8.265194654e-40
-1.293408294 -3.309670126 -2.177978874 0.1820039921 0.347647685 0.9197910817 9.183549616e-40
-1.393081813 -3.306774762 -2.183764751 0.1594973172 0.3433579902 0.9255624757 5.510129769e-40
-1.491078977 -3.298381844 -2.191163132 0.1490760602 0.3415096631 0.9279803221 9.183549616e-40
-1.588801223 -3.295173591 -2.196080338 0.1461545171 0.3409107185 0.9286650306 8.265194654e-40
-1.687976604 -3.295993901 -2.196210934 0.1528540058 0.3391135578 0.9282443901 5.510129769e-40
-1.785782219 -3.294935242 -2.191636051 0.1713827628 0.3385964094 0.925192099 3.673419846e-40
-1.882408798 -3.291962296 -2.181857425 -0.197578949 -0.3397849794 -0.9195154847 9.183549616e-41
-1.987439735 -3.305271894 -2.156773172 0.236225587 0.3396838641 0.910391314 9.183549616e-41
-2.088545425 -3.312048618 -2.126223481 0.2796170196 0.3433935806 0.8966020138 4.591774808e-40
-2.180931822 -3.306264952 -2.093658136 0.3174605038 0.3506921871 0.8810413262 4.591774808e-40
-2.280288803 -3.312095992 -2.045932083 -0.3616337532 -0.3598585995 -0.8600714022 1.561203435e-39
-2.386019776 -3.324575607 -1.983903089 -0.4093451389 -0.371350248 -0.8333879952 1.561203435e-39
-2.48473826 -3.33003176 -1.920017972 -0.4494976337 -0.3868021003 -0.8051931523 1.285696946e-39
-2.581112148 -3.333027712 -1.850210678 -0.4842745325 -0.4060920992 -0.7749628276 1.285696946e-39
-2.67674834 -3.339366888 -1.772442039 0.5160988029 0.4299830089 0.7407810997 1.19386145e-39
-2.792450166 -3.365948745 -1.65596396 0.5565305576 0.460588455 0.6914709058 7.346839693e-40
-2.906071762 -3.389701447 -1.530903148 0.5837792406 0.5027440808 0.6375344598 0
-3.013037987 -3.421160625 -1.39284956 0.6034490775 0.5527386037 0.5747427658 0
-3.113862408 -3.419883304 -1.288700163 -0.5913264683 -0.6099728764 -0.5275093345 9.183549616e-41
-3.19316229 -3.39865555 -1.239444225 -0.565367031 -0.6539023019 -0.5027642588 2.755064885e-40
-3.284790527 -3.379948858 -1.184387195 -0.5389017839 -0.6956769518 -0.4749931011 3.673419846e-40
-3.369546035 -3.362118929 -1.145123954 -0.5195851784 -0.7233917129 -0.454681946 3.673419846e-40
-3.454368052 -3.33173697 -1.141243568 -0.4945815945 -0.7452338223 -0.4472310325 3.673419846e-40
-3.547906057 -3.327293367 -1.083864182 -0.4823432785 -0.7704571624 -0.4168221713 4.591774808e-40
-3.639867022 -3.310554878 -1.054321388 -0.4707638018 -0.786433917 -0.3998789031 3.673419846e-40
-2.8162467 1.178999737 -2.76511076 0.1986477472 -0.3135974739 0.9285449353 2.755064885e-40
-2.917960687 1.178112162 -2.743376702 0.2218152081 -0.3104426935 0.9243502299 2.755064885e-40
-3.015875488 1.173944181 -2.72095972 0.2446559144 -0.3071446115 0.9196769385 2.755064885e-40
-5.229597505 3.727804044 -1.437285173 -0.4863874551 0.1426330133 -0.8620226604 2.755064885e-40
-1.327661521 5.971337929 -1.768707581 0.05264778936 0.6132022693 0.7881695168 5.510129769e-40
0.1219249968 -5.943247751 4.400102838 0.1229454711 0.5408070129 -0.8321130848 1.102025954e-39
-3.032063918 3.583582434 -1.500562391 -0.3509706524 -0.2636691954 0.8984977221 4.591774808e-40
-2.917906255 0.6085788982 -2.904692057 -0.2423275256 0.218587758 -0.9452495768 2.755064885e-40
-4.513485849 1.695594385 -1.777905866 0.4636995523 -0.239613419 0.8529760457 4.591774808e-40
1.465501199 8.37847233 -3.626446096 0.6995199951 0.2271074004 0.6775647608 4.224432823e-39
-3.618175595 2.858705131 -1.759068139 0.01457530173 0.2095186059 -0.9776960235 2.755064885e-40
-5.31057126 2.550094365 -1.438445187 -0.4748561635 -0.1287977296 -0.8705875997 4.591774808e-40
-4.217621459 3.155708891 -1.785754256 0.06549325175 -0.05185713027 0.9965046272 1.836709923e-39
-3.025967998 0.6109048762 -2.870627841 -0.2645703851 0.2149288254 -0.940110691 2.755064885e-40
-4.315794977 3.155710109 -1.781195665 0.09964533315 -0.04269302077 0.9941066912 1.836709923e-39
-3.12454768 0.6067748 -2.839385546 0.2836246708 -0.2106970174 0.9355019043 2.755064885e-40
-3.218855366 0.6007812366 -2.80875102 0.3005238393 -0.2068426445 0.9310754762 2.755064885e-40
-3.313031112 0.5949552251 -2.776818775 -0.3158466086 0.203507928 -0.9267283545 2.755064885e-40
-3.329886153 3.880179101 -1.570393225 -0.3522615096 -0.1529922626 0.9233120796 1.836709923e-40
-5.530805323 3.721650025 -1.24586731 -0.5959179824 0.1874149519 -0.7808696396 1.836709923e-40
-3.406177939 0.5889821663 -2.744234308 -0.3298362901 0.2010543943 -0.9223801561 2.755064885e-40
-3.512873827 1.44171151 -2.449081274 -0.3611217528 0.365619738 -0.8578538843 4.591774808e-40
-3.498556712 0.5835985071 -2.710704062 -0.34262035 0.200045859 -0.9179286193 2.755064885e-40
-5.285199804 1.704564922 3.726728705 -0.2377063211 -0.7561112642 0.6097470468 9.183549616e-40
-0.605418151 7.022127649 -2.304550915 0.233157885 0.1637629659 0.958550516 3.948926335e-39
0.1738579212 8.003914281 -2.60868543 -0.5574366202 0.1837317799 -0.8096338972 4.132597327e-39
-3.594421617 0.5792772268 -2.674490359 -0.354492689 0.2009769752 -0.9132048997 2.755064885e-40
-2.925676855 3.440269289 -1.486651835 0.3216644835 0.3245871224 -0.8894802752 4.591774808e-40
-3.112771971 1.169259593 -2.696520919 0.2673401394 -0.3052886713 0.9139628423 2.755064885e-40
-5.110227237 -2.037901491 2.048032709 0.6952019323 0.5699252044 -0.4380405629 2.755064885e-40
-5.007009578 3.14601604 -1.626167524 -0.3586883087 0.02684287685 -0.9330713569 1.836709923e-40
-5.197705034 2.410348932 -1.454698164 0.4638976413 0.1307573175 0.8761857693 4.591774808e-40
-3.215382459 1.169542983 -2.665983274 0.2911676812 -0.3052063371 0.9066810207 2.755064885e-40
-2.911645008 1.312341665 -2.702943687 0.2174829464 -0.3346008175 0.9169206405 2.755064885e-40
-1.712672964 1.325528425 -2.810746146 0.04524633844 -0.3770480921 0.9250878364 2.755064885e-40
-3.616893712 1.300722581 -2.458029545 0.3791627967 -0.3399334086 0.8606281725 4.591774808e-40
-4.725411771 4.171736396 -1.601839402 -0.3520706667 -0.0213012378 -0.9357309992 1.836709923e-40
-2.730900027 6.229252342 -1.118509993 -0.5416500686 0.4901138784 -0.682937471 8.265194654e-40
-3.693593534 0.5783064628 -2.635009241 -0.365665465 0.2046813036 -0.9079616356 2.755064885e-40
-0.1077639993 1.046435229 -3.083974041 0.1250678906 -0.4009091954 0.9075405444 2.755064885e-40
5.145466397 -3.052387337 -3.328908716 -0.6008868094 0.08905845906 0.7943573712 1.836709923e-40
5.018669843 -3.036775551 -3.434037363 -0.568938507 0.08353846694 0.8181260904 3.673419846e-40
4.901486166 -3.02511526 -3.522445788 -0.536206309 0.08233153726 0.8400620883 9.183549616e-41
4.797484468 -3.018592013 -3.592011895 -0.5044936552 0.08361462245 0.8593571707 9.183549616e-41
4.701035461 -3.015537043 -3.648845677 0.4750730469 -0.08661527514 -0.8756731092 1.836709923e-40
4.5970917 -3.009231504 -3.703845326 0.4438197457 -0.09096584455 -0.8914870994 3.673419846e-40
4.505429247 -3.009537395 -3.746018822 0.418450018 -0.09572695347 -0.9031810078 4.591774808e-40
4.402315879 -3.004537 -3.789605246 0.3918071228 -0.101450164 -0.9144370086 4.591774808e-40
4.30217022 -3.001834028 -3.827570623 0.3683762879 -0.107644548 -0.9234238257 2.755064885e-40
4.201267228 -2.998634978 -3.862222192 0.3481568262 -0.1139080608 -0.9304900741 9.183549616e-41
4.103421247 -2.997503555 -3.893383795 0.3321495922 -0.1202504729 -0.9355300488 9.183549616e-41
4.005068579 -2.996498759 -3.923104552 0.3191893388 -0.1267058882 -0.9391825083 0
3.905979138 -2.995121655 -3.952141685 0.3087803746 -0.1330634332 -0.9417795936 0
3.80694176 -2.993488135 -3.980778761 0.3006634513 -0.1391497077 -0.9435246938 9.183549616e-40
3.70105241 -2.98734753 -4.012288528 0.2941806983 -0.1451161879 -0.9446687296 7.346839693e-40
3.598930009 -2.982763091 -4.042957219 0.2892370198 -0.1502118326 -0.9453985148 9.183549616e-41
3.497034511 -2.978645801 -4.074245116 -0.2850952678 0.1543779304 0.9459852763 7.346839693e-40
3.398560496 -2.977829483 -4.104404858 -0.281043956 0.1575778973 0.9466696895 7.346839693e-40
3.300088554 -2.977039743 -4.134940541 -0.2764418727 0.159550748 0.9476937532 8.265194654e-40
3.198265615 -2.973623746 -4.166868581 -0.2707298362 0.1605795431 0.9491678282 9.183549616e-40
3.099951073 -2.971699317 -4.197034857 -0.2643940796 0.1604940658 0.9509665743 7.346839693e-40
2.998105245 -2.968055173 -4.227354451 -0.2567581361 0.1597421516 0.9531829334 5.510129769e-40
2.895614926 -2.964731983 -4.256501614 -0.2485182608 0.1585597598 0.9555613411 6.428484731e-40
2.793292243 -2.959338903 -4.284083062 -0.2401232994 0.1570574062 0.9579529071 5.510129769e-40
2.696207162 -2.96078689 -4.307769002 0.2325099109 -0.1563619536 -0.9599427487 5.510129769e-40
2.60407482 -2.966059817 -4.328334756 0.2257026126 -0.1565915658 -0.9615286851 9.183549616e-41
2.508340754 -2.969878156 -4.348902944 0.2191479286 -0.1574430555 -0.9629049121 1.836709923e-40
2.408028928 -2.96945378 -4.370077332 0.2131381799 -0.1586890808 -0.9640486979 1.836709923e-40
2.309355902 -2.969436723 -4.390270512 0.2078329026 -0.1609931333 -0.9648246968 2.755064885e-40
2.208214307 -2.967608247 -4.411029116 0.2029941912 -0.1642476046 -0.9653062119 1.836709923e-40
2.109137657 -2.967525799 -4.431472546 0.1982937426 -0.1685067639 -0.9655490988 4.591774808e-40
2.008837756 -2.966379494 -4.453040864 0.1930985399 -0.1735636562 -0.9657062758 9.183549616e-40
1.910146056 -2.967492941 -4.474700829 -0.1865236342 0.1796040423 0.9658940531 1.010190458e-39
1.811825674 -2.96927218 -4.497164551 -0.1775197935 0.1866469065 0.9662554813 7.346839693e-40
1.711176967 -2.967423438 -4.521315752 -0.1653076028 0.1941829728 0.9669365902 2.755064885e-40
1.609079001 -2.96210995 -4.546965795 -0.1480477124 0.2022537054 0.9680781547 1.836709923e-40
1.505882707 -2.95762911 -4.57139205 -0.1270977078 0.2104594107 0.9693054261 4.591774808e-40
1.407285456 -2.957963753 -4.592167269 -0.09905466626 0.2208349603 0.9702680523 7.346839693e-40
1.303236325 -2.947889243 -4.612336991 -0.06781755824 0.229029393 0.9710542291 7.346839693e-40
1.202340906 -2.939667993 -4.627477952 -0.02806249055 0.2391145161 0.9705857741 6.428484731e-40
1.103887655 -2.937219284 -4.635119074 0.01661832085 0.2497386718 0.9681706602 1.836709923e-40
1.005061915 -2.937899881 -4.635518394 -0.06823113301 -0.2612719407 -0.9628507078 9.183549616e-41
0.9047077707 -2.944701807 -4.626541013 0.1270520062 0.2745454986 0.9531435133 0
0.8038066927 -2.949710187 -4.60942186 0.1880355961 0.2870156134 0.9392894401 9.183549616e-41
0.700974115 -2.957021806 -4.581844326 0.2547915717 0.2990173694 0.9196031034 3.673419846e-40
0.6000851374 -2.96141442 -4.545782127 0.3205737716 0.3092256498 0.8953278475 4.591774808e-40
0.4933293889 -2.972037219 -4.493640702 0.3902373681 0.3190423996 0.8636705065 1.836709923e-40
0.3951380116 -2.974816897 -4.437235108 0.4541062189 0.3262327037 0.8290716284 0
0.2919485141 -2.983017082 -4.363627385 -0.5199874395 -0.3304165525 -0.7876788461 1.836709923e-40
0.1894261272 -2.991974295 -4.276446141 0.585538064 0.3316746258 0.7396871759 1.836709923e-40
-3.796363052 0.5748248107 -2.593013831 -0.3764318538 0.2097278137 -0.9023930982 4.591774808e-40
-3.902505567 0.5753451381 -2.547438687 -0.3869726427 0.2175374324 -0.8960634126 4.591774808e-40
-3.825067113 4.030867195 -1.68954249 -0.1975900071 -0.01055936734 0.980227876 1.836709923e-40
-3.373724959 -5.984743596 3.512048754 -0.43353306 -0.6139274048 0.6596531115 1.102025954e-39
-5.019963242 4.60939809 -1.432130603 0.6340957601 0.03983084972 0.7722279912 1.836709923e-40
-0.6761258243 7.414821702 -2.281510183 -0.4353634612 0.2118009316 -0.8749851553 4.132597327e-39
-3.676722762 7.46645219 -6.766327589 0.8003508992 0.1212688751 0.587139079 8.265194654e-40
-4.010123804 0.5749539054 -2.500295656 -0.3978000599 0.2264717 -0.8890813694 4.591774808e-40
-0.7217201583 -3.165409355 -2.398883486 -0.5979578063 -0.3763737189 -0.7076646703 5.510129769e-40
-0.8156622068 -3.172810752 -2.325203323 -0.4986810508 -0.3879548712 -0.7751182023 5.510129769e-40
-0.9007477155 -3.163928203 -2.29246112 -0.4235122998 -0.3918789712 -0.8167424342 9.183549616e-41
-0.990625062 -3.154870731 -2.271708557 0.3572703593 0.3919058411 0.8478016879 9.183549616e-41
-1.087979794 -3.149302513 -2.258739798 0.2961635106 0.3894260381 0.8721436441 4.591774808e-40
-1.190303443 -3.152515568 -2.249636296 0.2402757955 0.3847244297 0.8912096584 6.428484731e-40
-1.291249105 -3.152796132 -2.249056047 0.1994103823 0.3797096819 0.9033582107 9.183549616e-41
-1.391759249 -3.153719829 -2.250228681 0.1722986204 0.3750666173 0.9108447826 4.591774808e-40
-1.490357096 -3.149945245 -2.254590991 0.1575859317 0.3706679508 0.9152988279 7.346839693e-40
-1.588118684 -3.145700245 -2.257171687 0.1522744141 0.366660321 0.9178086466 8.265194654e-40
-1.68874272 -3.150956157 -2.253111294 0.1558376958 0.3628380831 0.9187290885 6.428484731e-40
-1.787147783 -3.149123884 -2.24705403 -0.169024323 -0.3618880196 -0.9167703309 5.510129769e-40
-1.885759412 -3.150550423 -2.233216266 -0.1918901544 -0.3618787352 -0.9122619962 5.510129769e-40
-1.98288457 -3.149173553 -2.213733602 -0.2200558771 -0.3648055724 -0.9047056457 2.755064885e-40
-2.090405456 -3.165213951 -2.177569795 0.2592761651 0.3690665501 0.8925053231 4.591774808e-40
-2.193055973 -3.17402642 -2.135952964 0.2976617005 0.3775557741 0.8768404356 4.591774808e-40
-2.292997014 -3.181807461 -2.088471987 -0.3348843032 -0.3899491197 -0.8577832987 4.591774808e-40
-2.396028349 -3.191194832 -2.031793922 -0.3738158505 -0.4059442247 -0.833949037 1.561203435e-39
-2.497551924 -3.19888409 -1.96978473 -0.4073984125 -0.4246990468 -0.8084907254 1.561203435e-39
-2.592665832 -3.199797937 -1.909605091 -0.4339606194 -0.448986823 -0.7810819506 1.285696946e-39
-2.694809594 -3.20776468 -1.835635725 -0.4581974161 -0.4767916325 -0.7501498964 5.510129769e-40
-2.817179772 -3.247940585 -1.717435382 0.4971898012 0.5087231853 0.7028534856 8.265194654e-40
-2.916100983 -3.264326069 -1.626286374 0.5108830702 0.5464491814 0.6636202082 8.265194654e-40
-3.012553368 -3.253117794 -1.563483783 -0.4997113038 -0.5895491326 -0.6346025789 0
-3.098119436 -3.238788619 -1.518365291 -0.4836046913 -0.6259117092 -0.6118505004 2.755064885e-40
-3.187532353 -3.225448146 -1.476445414 -0.4669539578 -0.6591602107 -0.5894589196 9.183549616e-41
-3.278899216 -3.214265143 -1.4377784 -0.4521289937 -0.6871951692 -0.5686318427 9.183549616e-41
-3.374954527 -3.210240986 -1.391964316 -0.4412404687 -0.7135936268 -0.5441424305 2.755064885e-40
-3.471041983 -3.207352173 -1.347951743 -0.4334937743 -0.7356835086 -0.5204353204 0
-3.566158583 -3.204169242 -1.303720737 -0.4301570755 -0.7530557305 -0.4978674092 6.428484731e-40
-3.665514482 -3.210203461 -1.238416567 -0.4323007367 -0.7721392781 -0.4657435005 3.673419846e-40
-3.752725102 -3.186570051 -1.22244669 -0.4328037089 -0.7779687535 -0.4554619282 5.510129769e-40
-3.849162517 -3.190261134 -1.144109866 -0.4436231801 -0.7902549918 -0.4227239312 2.755064885e-40
-4.118137176 0.5748465357 -2.452250784 -0.409014738 0.2360406531 -0.8814713575 4.591774808e-40
0.6778492232 8.060163558 -2.917876539 -0.5599412348 -0.07267093882 -0.8253391717 4.224432823e-39
-3.31386611 1.166191573 -2.634446692 0.3134802247 -0.3053245208 0.8991702207 2.755064885e-40
-3.411287465 1.161450961 -2.600231362 0.3349252502 -0.3062649088 0.8910818607 2.755064885e-40
-1.027011681 6.28053016 -1.987975802 0.07526659497 0.5227771269 0.8491401623 5.510129769e-40
-1.527389753 5.961309 -1.726791123 0.1464873306 0.5405706112 0.8284472682 5.510129769e-40
-0.07915934557 -5.944744307 4.359284846 0.2526077213 0.5401273146 -0.8027775677 1.102025954e-39
-2.933299647 3.580523024 -1.457592647 -0.3733638124 -0.298012805 0.8785145597 4.591774808e-40
-4.711871423 1.687139917 -1.660680863 -0.510766618 0.1931726018 -0.8377361206 4.591774808e-40
-4.610906417 1.690325858 -1.722794775 0.4860113191 -0.2176131046 0.8464263314 4.591774808e-40
-3.661989672 -2.324343517 2.951733543 -0.2925369783 -0.5915171345 0.7513518456 2.755064885e-40
-3.518909041 2.857853865 -1.750141223 0.0248530177 0.2446031691 -0.9693047081 2.755064885e-40
-5.513784825 2.545843491 -1.3327465 -0.5362944303 -0.1492734952 -0.8307260124 4.591774808e-40
-5.41264108 2.547527157 -1.387153712 -0.504755469 -0.1398876879 -0.851852893 4.591774808e-40
-4.215796435 0.570640773 -2.409204096 -0.4199431767 0.2435695095 -0.8742548955 4.591774808e-40
-5.698531887 2.544168298 -1.219732791 -0.6008000088 -0.1633011024 -0.7825420752 1.836709923e-40
-5.61074174 2.542944696 -1.275840217 -0.5690238241 -0.1578168276 -0.807035152 1.836709923e-40
-5.782696991 2.54679239 -1.161355836 -0.6340125427 -0.1659324276 -0.7553108798 1.836709923e-40
-3.523129219 3.883518568 -1.635271894 -0.2897478338 -0.1063900736 0.9511715645 1.836709923e-40
-4.907549307 2.120140101 -1.52485407 0.4586115454 0.0363849698 0.8878916513 4.591774808e-40
-5.708049844 3.420454739 -1.204291316 -0.6317999533 0.1521191815 -0.7600582699 1.836709923e-40
-5.604966735 3.422541184 -1.279993808 -0.5892174088 0.1424779003 -0.7953130787 1.836709923e-40
-4.853009237 -2.847707774 0.6803853247 -0.6720781323 -0.73069549 0.1199795188 2.755064885e-40
-4.414254663 -1.968299621 2.82994049 0.4833346443 0.5045345412 -0.7154247119 2.755064885e-40
0.1827537766 7.082187484 -2.416900971 0.1097898384 0.443105318 0.8897212308 4.224432823e-39
-1.206987171 6.989233354 -2.079249331 -0.4506846915 0.08918185016 -0.8882172631 5.510129769e-40
-4.131978512 -2.256587738 2.787202142 -0.4109966429 -0.5874096842 0.6971596821 2.755064885e-40
-4.318054434 0.5694412709 -2.362297582 0.4341501473 -0.2512901924 0.8650820127 4.591774808e-40
1.003383845 7.122733221 -2.587065943 0.217834059 0.6162230591 0.7568470546 3.948926335e-39
-3.51534035 1.161913806 -2.557629701 0.3563894428 -0.3095081886 0.8815845089 4.591774808e-40
-3.235483358 4.024310834 -1.501388338 -0.4180819647 -0.1677508124 0.8927861646 1.836709923e-40
-4.907850774 3.147773865 -1.662267076 0.3234995493 -0.025456246 0.9458858394 1.836709923e-39
-3.229902649 3.586923765 -1.578284928 -0.3047456896 -0.2044849559 0.9302236115 4.591774808e-40
-3.412054078 1.303181054 -2.551067824 0.3381959192 -0.3357241298 0.8791546104 2.755064885e-40
-1.915351402 1.337571751 -2.7959189 0.05238577541 -0.373856298 0.926006047 2.755064885e-40
-1.813713963 1.33124617 -2.803257871 0.048041545 -0.3756400243 0.9255196281 2.755064885e-40
-3.725209115 1.303459065 -2.400225763 -0.3958532837 0.3425150285 -0.8520467317 4.591774808e-40
-5.306982786 1.960012054 -1.24517111 0.5956084182 0.1181831849 0.7945334147 4.591774808e-40
-4.410192772 0.5622567192 -2.320568889 -0.4487218653 0.2566251043 -0.8560328518 4.591774808e-40
5.327546669 -2.916640579 -3.189139242 -0.6311332051 0.09671225344 0.7696217366 2.755064885e-40
5.237893734 -2.91325055 -3.266919738 -0.6144328445 0.09088755202 0.7837166149 1.836709923e-40
5.147239809 -2.909727975 -3.344245912 -0.5953092771 0.08561049995 0.7989228416 3.673419846e-40
4.996320434 -2.886786857 -3.468632684 -0.5595900176 0.07773502582 0.8251159179 3.673419846e-40
4.885621539 -2.87716939 -3.550556257 -0.5292579882 0.07466549376 0.845169241 9.183549616e-41
4.787995149 -2.872665991 -3.614915531 0.5013531612 -0.07458294501 -0.8620222689 0
4.692036673 -2.870092597 -3.671251985 -0.4745190484 0.07608760196 0.876950597 0
4.597902159 -2.867597791 -3.720966415 0.4478662611 -0.079199499 -0.8905859035 9.183549616e-41
4.506413295 -2.867166645 -3.764248377 0.4237025581 -0.08344047063 -0.9019500153 0
4.408370206 -2.865015336 -3.806302984 0.3994694631 -0.0883772041 -0.9124766396 9.183549616e-41
4.304332276 -2.860386702 -3.847068224 0.3762931666 -0.09444631216 -0.9216742086 9.183549616e-41
4.203406871 -2.857339856 -3.882977482 0.3568254162 -0.101106524 -0.9286835269 0
4.101947215 -2.854097801 -3.916651163 0.3408661956 -0.108256047 -0.933858054 1.836709923e-40
4.006839297 -2.856082714 -3.945708444 0.3280607622 -0.115436851 -0.937576914 1.836709923e-40
3.911664054 -2.858160033 -3.974000042 0.3180226783 -0.1226484729 -0.9401164439 0
3.817516309 -2.858327326 -4.001624811 0.3099293276 -0.1293521473 -0.941919229 2.755064885e-40
3.714808976 -2.855196709 -4.03226245 0.3025652568 -0.1361082698 -0.9433603788 5.510129769e-40
3.612517972 -2.851639773 -4.063235641 0.2963588184 -0.1420494213 -0.9444540289 9.183549616e-41
