# .PCD v0.7 - Point Cloud Data file format
VERSION 0.7
FIELDS x y z normal_x normal_y normal_z rgb
SIZE 4 4 4 4 4 4 4
TYPE F F F F F F F
COUNT 1 1 1 1 1 1 1
WIDTH 513
HEIGHT 1
VIEWPOINT 0 0 0 1 0 0 0
POINTS 513
DATA ascii
0.6667217259 3.218639752 -0.03186169535 0.2261359078 -0.9714990337 0.07107867967 3.673419846e-40
0.1651360968 3.071295154 -0.2705863323 0.09243280449 -0.9879277511 0.1243178799 3.673419846e-40
-1.043104613 3.199329878 -0.7098660615 -0.2744999643 -0.9390204563 0.2070998606 9.183549616e-41
5.997743395 1.747929059 1.874156659 0.7303603745 0.5412279032 0.4167086275 1.836709923e-40
6.474934729 1.450615778 0.7216347528 -0.8475116754 -0.5236230457 -0.08684967469 1.836709923e-40
0.1195388558 1.749229902 2.791485015 -0.2351076673 0.5869554108 0.7747307471 7.346839693e-40
0.2230445019 1.741728574 2.839616643 -0.2453541624 0.573399787 0.7816738574 2.755064885e-40
5.417635595 2.636037865 1.227787232 0.6183381302 0.7615920362 0.1939987811 9.183549616e-41
-3.625765487 6.314937392 -2.65679923 0.8867225392 0.3910413122 0.2465964933 2.663229389e-39
6.682294358 0.897752307 1.321650438 0.883553293 0.4072544901 0.2312517214 0
7.186093962 -0.1721786277 0.3429039049 -0.9770519341 -0.2085806612 -0.04316973216 7.346839693e-40
-0.7011099259 7.856370335 -1.327873123 0.5386794364 0.1907151932 0.8206413223 3.58158435e-39
-5.373948908 4.067288745 4.120408043 -0.2897846941 0.4410477151 0.8494125877 1.836709923e-40
-4.569930515 3.082792001 4.413202391 0.1934069322 0.1208331595 0.9736493754 3.673419846e-40
-5.372404727 4.209052059 4.027679591 -0.2948990202 0.4924494774 0.8188577899 1.836709923e-40
3.476136176 3.609952353 0.7955869415 -0.1529643302 -0.9822637636 -0.1084426683 1.744874427e-39
6.673989078 1.17672588 -0.07792564317 -0.8662681684 -0.4968356139 0.05228606952 9.183549616e-41
6.336763589 0.5969457613 -1.842639137 -0.7449495551 -0.3519728804 0.5667144359 2.479558396e-39
-6.417340574 4.542939456 1.324943458 0.9955548163 -0.04869850359 -0.08061676927 4.591774808e-40
-5.802161563 1.363873285 1.55958324 -0.8812946518 -0.2989670265 0.365976029 1.102025954e-39
-4.211121109 6.098767503 0.5825597772 -0.004032734235 -0.9991621703 0.04072707209 1.653038931e-39
-5.778271166 5.716815819 1.807454183 -0.5160763926 0.8028608523 0.2984620726 4.591774808e-40
3.212417771 3.053408411 2.282367228 0.08446781758 0.779145322 0.6211261989 3.673419846e-40
3.567015228 2.907938468 2.403621477 0.1608343265 0.7181623918 0.6770340452 5.510129769e-40
-0.4764132794 3.065520896 -0.5088574 -0.1802631412 -0.968613936 0.1711497673 3.673419846e-40
-2.292782758 4.645360852 0.3439971241 0.9714252576 0.1649083043 0.1706992096 7.346839693e-40
-5.173378295 4.067093124 4.177077319 -0.1369804553 0.4405609637 0.8872104554 5.326458777e-39
2.250757845 3.275440989 1.935342818 -0.0888033779 0.8831227087 0.4606606575 3.673419846e-40
-1.829665634 2.869522551 1.668980492 0.5139256515 0.5844502214 0.6279318143 2.755064885e-40
0.3274164644 1.7345986 2.888366068 -0.2497221321 0.558367539 0.7911160144 7.346839693e-40
-5.222823782 -0.1658297952 -1.95107459 0.7003184349 -0.07932148746 0.7094097485 1.010190458e-39
5.024464852 2.885538508 1.365210562 0.5200095487 0.8169854635 0.2492485138 1.836709923e-40
-6.390120367 2.743271258 -0.3893420744 0.8879192934 0.03014718101 0.4590103222 8.265194654e-40
6.707805542 0.6112622053 -1.175176904 -0.855719647 -0.3711871722 0.3605051581 2.479558396e-39
6.788212784 0.6129452558 -0.9725987092 -0.8754958832 -0.3740547135 0.305924876 2.479558396e-39
-5.916576566 2.184671165 -0.8673443578 0.7207947332 0.2656664737 0.6402158053 2.755064885e-40
-2.315066201 4.646387047 0.4450725603 0.9615336297 0.1952167103 0.1932447021 7.346839693e-40
-0.4592908132 8.029442583 -1.344918472 0.5842667541 -0.8108196976 -0.03469550582 3.58158435e-39
-4.918989133 5.187784901 3.303848421 -0.1047958902 0.7160852323 0.690101269 4.591774808e-40
5.071765128 2.887162956 1.240693185 0.5356298431 0.8189372232 0.2060157656 0
0.4306132206 1.73194945 2.931663689 -0.2490592812 0.5429276012 0.8019969416 2.020380915e-39
0.7866083135 8.205328571 -3.003004482 0.6091305774 0.06116801212 0.7907075401 4.224432823e-39
-1.085430663 7.263732975 -2.07923812 0.5041642161 -0.2748990784 0.8186873273 2.112216412e-39
0.5315200814 1.733122983 2.968529612 -0.2447831452 0.5277943664 0.8133353052 2.112216412e-39
-0.5441540929 3.125721396 -0.2426282481 -0.1941260058 -0.9762981938 0.09569185244 2.755064885e-40
-0.3569170321 3.089469766 -0.1749118183 -0.1319608093 -0.9877895086 0.08281444049 3.673419846e-40
3.716139781 3.254597844 1.885296788 0.2060618489 0.8593471904 0.4680394437 5.510129769e-40
-1.968482151 3.778655015 0.7064719581 0.805934533 0.5750088227 0.1408345922 1.010190458e-39
0.04500786931 3.050041984 -0.31534293 0.04299614237 -0.9900361796 0.1340883844 2.204051908e-39
0.2913599501 3.100938912 -0.224064597 0.137336004 -0.9839134057 0.1142507419 3.673419846e-40
4.438180266 2.792546716 2.174046329 0.3502784636 0.7347391412 0.5809159943 5.510129769e-40
4.522263099 2.741090049 2.18948184 0.3632654203 0.7245423443 0.585727433 3.673419846e-40
4.374575935 2.80945141 2.188190126 0.3390830644 0.7330727778 0.5895989975 5.510129769e-40
6.054207359 1.648449913 1.895538343 0.7421334866 0.5178137651 0.4255664376 2.755064885e-40
5.877418234 1.94054056 1.82742262 0.7034255662 0.5882094518 0.3990013955 2.755064885e-40
-1.509380203 6.995048808 -0.5617358158 0.2167573382 0.4563219659 0.8630101504 2.755064885e-40
-6.270940062 3.43524244 -0.4894647652 0.8665926109 -0.1716014556 0.4685831699 9.183549616e-41
-2.697023654 4.792404386 1.746564996 0.8878352694 0.2207934882 0.4037310614 2.755064885e-40
6.9766653 0.3511975798 0.9224304901 -0.9338591391 -0.3252082395 -0.1488177046 1.836709923e-40
6.941761543 0.6279987005 0.2213779357 -0.9254511611 -0.3778390721 -0.02788877985 9.183549616e-40
6.776247491 0.05514241943 1.924354333 0.8758469733 0.2492965295 0.4132109871 9.183549616e-41
-2.830181729 5.903111488 0.7779435853 0.5382966154 0.7984492033 0.2696583461 9.183549616e-41
-0.02103149982 6.299643707 -1.318387659 0.3951519591 -0.9165675568 -0.06130940352 8.265194654e-40
-4.175985515 5.176783819 3.231419524 0.3310265791 0.5569269744 0.7617438868 3.673419846e-40
-4.48067557 4.614411263 3.740242096 0.3156526201 0.4957438719 0.8090744323 5.326458777e-39
-4.317651171 -3.191419549 1.106107017 -0.5181197278 -0.8160028286 0.2563032022 3.673419846e-40
-6.382562887 2.47249373 -0.3729030704 0.8725441253 0.1481689321 0.4655241314 8.265194654e-40
-4.873176604 3.224310659 4.426225469 0.01247605845 0.1068031617 0.9942019074 3.673419846e-40
-1.31114739 6.966637831 -0.6660557386 0.3481527622 0.3848924831 0.8547791707 1.469367939e-39
-1.407046186 6.961303216 -0.6048812109 0.2985641925 0.406338686 0.8635671921 1.469367939e-39
-3.777992985 6.627916023 -2.746752154 0.7195514413 0.6139996407 0.3244228176 7.346839693e-40
-0.7581555405 3.132259804 -0.609720045 -0.2470536729 -0.9509287346 0.1862767415 2.755064885e-40
-2.100571508 3.995394307 0.7808563149 0.8604176113 0.4852802032 0.1555141746 1.469367939e-39
-4.150947554 6.012388036 -0.4144907327 -0.05081974331 -0.9966393755 0.06424413555 2.020380915e-39
-6.538515384 2.090546515 2.936359358 0.8852411251 0.4397114574 -0.1516640516 5.510129769e-40
3.305197907 3.023202423 2.312388961 0.1028060756 0.7663807882 0.634106772 5.510129769e-40
3.392616807 2.987141425 2.345429432 0.1212263745 0.7505644627 0.6495822915 5.510129769e-40
3.480358409 2.948871423 2.375684939 0.1407748481 0.7351101313 0.6631708203 5.510129769e-40
-0.5680917155 3.085790722 -0.5386494534 -0.2067386383 -0.9624711255 0.1758080434 3.673419846e-40
-3.659907791 6.062310614 0.3438831471 -0.02309076351 -0.9996893958 0.00937702455 5.510129769e-40
5.957273112 1.958180962 1.630352357 0.7372462688 0.5972614392 0.3158270292 9.183549616e-41
5.752861584 2.114119818 1.77997234 0.6752569789 0.630171116 0.3832915039 9.183549616e-41
-0.428628415 8.058728883 -1.587164309 0.6749058382 -0.02884411471 0.737339899 4.040761831e-39
6.661488056 0.1886005171 -1.584022851 -0.8281791183 -0.3005142966 0.4730861503 2.479558396e-39
-4.475449125 6.982577473 -2.571575201 -0.1381718111 0.8789057052 0.4565449726 5.510129769e-40
-4.580654314 6.996429106 -2.598738994 -0.2517226324 0.8586465239 0.4464995671 5.510129769e-40
1.925630742 2.724804741 2.634561093 -0.1242432344 0.6985526529 0.7046898679 3.673419846e-40
1.824815221 2.727486821 2.613020004 -0.1471803814 0.7029466944 0.6958475984 3.673419846e-40
5.567665666 -0.2293437148 3.476568467 0.5502408595 0.2270870073 0.8035337502 1.836709923e-40
1.283867822 6.742668231 -2.17935517 0.2834679592 0.6644053115 0.6915283784 4.316268319e-39
-1.673190447 7.109458189 -0.5550050235 -0.006061824627 0.6149522525 0.7885410462 6.428484731e-40
-0.3564880546 3.001078702 -0.6580973008 -0.1463791353 -0.9653327417 0.2161153547 9.183549616e-41
-1.600328537 7.469733185 -0.7991231049 -0.2429707856 0.7829843989 0.5726260808 2.755064885e-40
0.6274287188 1.742949408 2.994665768 -0.2398510134 0.5153776407 0.8227134245 2.112216412e-39
-6.435283834 4.001173663 1.229039418 0.9812041083 -0.187561 -0.04538027229 3.673419846e-40
-4.947466335 7.6151486 -4.843565357 -0.2128103148 0.8808255533 0.4229162028 4.867281296e-39
-4.973721336 3.222401308 4.424570086 -0.05511728573 0.08351651107 0.9949809431 3.673419846e-40
0.7287453339 1.741836304 3.027849359 -0.2310518305 0.500261886 0.8344777391 2.112216412e-39
-5.969721841 0.8337726864 -0.3532548258 0.9386314279 -0.1480338033 0.3115397817 8.265194654e-40
-2.337360329 4.644071353 0.5433678552 0.9520312105 0.2219001551 0.2107057082 7.346839693e-40
6.374384097 1.445248504 1.420550703 0.8271582324 0.503634868 0.2493214356 2.755064885e-40
5.986470738 0.5957444105 2.729883435 0.6529220509 0.3862418239 0.6515443568 1.836709923e-40
-0.9341139607 7.510361683 -1.022650646 0.4780713718 0.2730987804 0.8347842953 2.020380915e-39
-4.971978496 4.616117748 3.819465143 -0.03784360839 0.5875402023 0.8083095768 5.326458777e-39
-4.970350281 5.168786073 3.312831085 -0.1297684261 0.7116608102 0.6904339554 2.755064885e-40
-1.270239844 7.556851664 -0.8679273019 -0.02980188144 0.6981005144 0.7153792838 1.469367939e-39
6.587936451 1.173149436 1.120973507 -0.8701850874 -0.4611823316 -0.1734611507 9.183549616e-41
-5.876868493 1.367675896 -0.3761551387 0.9143779316 0.07667252696 0.3975353088 9.183549616e-41
7.20506408 -0.9036848088 1.121618548 -0.9762521623 -0.1057157339 -0.1890923032 2.020380915e-39
4.483636148 3.243524212 1.067905404 -0.4216912268 -0.8919929706 -0.1628651271 9.183549616e-41
2.613458124 -5.638689081 3.740684019 0.2031976602 -0.386300276 0.899712625 1.836709923e-39
2.714705523 -5.639252448 3.717302107 0.1942445656 -0.3981531925 0.8965171967 1.836709923e-39
2.814031563 -5.6399081 3.697820263 0.1848390708 -0.409504367 0.8933872012 1.836709923e-39
2.915532974 -5.645165927 3.678853314 0.1807255738 -0.4259729709 0.8865017175 1.836709923e-39
1.098542483 3.281961808 -0.509910768 0.2351485394 -0.9517023503 0.1974026362 8.265194654e-40
-4.576396033 4.61965274 3.773732733 0.246415054 0.5222397526 0.8164222327 5.326458777e-39
-2.378385952 6.111619675 0.1144694452 0.3302630121 0.5896243767 0.737068136 8.265194654e-40
-6.445027195 3.998146371 1.127085955 0.98153552 -0.1905235201 -0.01699444616 3.673419846e-40
-4.873729859 4.618932461 3.82251528 0.03312511963 0.5767542361 0.8162458439 5.326458777e-39
-0.7635244257 7.972473022 -1.674032484 0.5292905086 -0.8446009447 0.0806275494 4.040761831e-39
6.778781273 0.982090866 -0.2143489948 -0.8839333684 -0.4600929625 0.08352404509 9.183549616e-41
-6.536016585 3.174211155 2.431450116 0.9794296997 -0.1764378317 -0.0979140179 7.346839693e-40
6.424907304 0.3088971741 -1.871739342 -0.7603959092 -0.3136072653 0.5687253682 2.755064885e-40
6.723751124 0.3305791768 -1.376752782 -0.8524278144 -0.3180442335 0.4149875741 2.479558396e-39
6.855831346 0.3371689596 -1.073919607 -0.8882670728 -0.3171102067 0.3322991486 2.479558396e-39
5.756127446 0.6980741008 2.870420287 0.5877888906 0.4093813946 0.6977901503 2.755064885e-40
7.262518204 -0.8997691601 0.4222251553 -0.9937889424 -0.1019316388 -0.04464839196 2.755064885e-39
-0.3514916953 8.327393704 -1.443167047 0.7382360299 -0.471267056 0.4826126045 3.58158435e-39
-0.2782739766 8.383344147 -1.594217435 0.7197653649 -0.1892509964 0.6679235584 4.316268319e-39
-4.540381836 2.891927071 4.44327817 0.1622209498 0.06026779855 0.984912258 3.673419846e-40
-4.574886802 5.173569545 3.340663042 0.1060383517 0.6633721933 0.7407382811 4.591774808e-40
-3.402373949 3.461192221 3.118115097 0.6464057146 0.3187506574 0.6932226703 5.510129769e-40
6.930807882 -0.2186938602 1.720064901 0.9119430318 0.1974012127 0.3597119237 9.183549616e-41
1.789059234 3.51470059 0.6107381652 0.1823865518 -0.9818649269 -0.05173404225 9.183549616e-41
0.9423452379 3.315971307 0.3030223617 0.2560902175 -0.9666412287 -0.004747146549 2.204051908e-39
-0.4505385186 3.10564704 -0.2085225026 -0.1663154051 -0.9820364387 0.08912698346 2.755064885e-40
-4.331005089 6.035838037 -0.187000306 0.009471709892 -0.998162172 0.05985453349 3.122406869e-39
3.891867337 2.833318436 2.38909653 0.2347885928 0.6981022136 0.676407877 5.510129769e-40
1.862594234 3.106253771 2.132764075 -0.1621356244 0.8385240368 0.5201821595 3.673419846e-40
-3.892845056 5.891428835 2.308922959 0.1515524378 0.8796068193 0.4509142957 9.183549616e-41
-4.502145422 5.951051701 2.087617024 -0.05590920183 0.9435405049 0.3265049414 0
4.598439195 2.566976074 2.342105597 0.3593365182 0.6606817074 0.6590727943 3.673419846e-40
-1.563070785 7.642896462 -1.232284864 0.4758353034 -0.8544561006 -0.2085318588 3.58158435e-39
-1.727466482 7.533124898 -1.288079406 0.56339503 -0.8240289945 -0.05968464108 3.58158435e-39
-3.064930445 -5.523851173 3.755472552 -0.2778735542 0.09503475545 0.9559051643 1.19386145e-39
-2.969143862 -5.520913405 3.77344952 -0.1986086508 0.09730152812 0.9752369027 1.19386145e-39
-2.870226835 -5.520330797 3.781972115 -0.1214513865 0.09594772641 0.9879491862 1.19386145e-39
-2.772915048 -5.520013759 3.782941259 -0.05328104822 0.09077211139 0.9944453498 1.19386145e-39
0.8256692093 1.749404364 3.051676634 -0.2235354208 0.4888749655 0.8432278362 2.112216412e-39
-2.37768159 6.250915363 0.03261918357 0.1844209724 0.6408828164 0.7451564403 1.010190458e-39
-4.872182816 5.173774853 3.329398871 -0.06961508295 0.7053043857 0.7054781809 4.591774808e-40
1.300378539 6.680512432 -2.089568259 0.1825190069 0.7295745854 0.6590961511 4.316268319e-39
-4.861478417 6.726439435 -2.272523034 -0.5579834985 0.7267974239 0.4005245561 5.510129769e-40
-4.474068376 6.841952712 -2.278249658 -0.1395854905 0.8714311661 0.4702378266 1.744874427e-39
6.530430164 1.166193083 1.41806524 0.8555905801 0.4506787241 0.2546633991 5.418294273e-39
6.572877921 1.312548939 0.5214424433 -0.8612503202 -0.5046720396 -0.05961558854 1.836709923e-40
6.905287825 -0.2236856548 -1.378758053 -0.8932725918 -0.2243762505 0.3895117135 2.479558396e-39
-1.875258646 6.829112816 -0.3747130719 0.03014108449 0.5651608462 0.8244299442 5.142787785e-39
-1.688442638 6.820772459 -0.429961387 0.1761484504 0.468542909 0.8657016032 5.142787785e-39
-1.573333008 -5.556003643 3.469791637 -0.02631789777 -0.03597524336 0.9990060811 5.510129769e-40
-1.479398964 -5.562148532 3.464184063 -0.09048927509 -0.05787134136 0.9942145638 5.510129769e-40
-4.360988396 7.140966974 -2.969136883 0.02166647936 0.9046976851 0.4255028345 5.510129769e-40
0.1463628931 -0.4770260439 3.992820554 -0.6194359977 0.3471929502 0.7040994958 5.510129769e-40
-0.850356491 3.156039811 -0.6397877675 -0.2593292125 -0.9466609679 0.1912625718 2.755064885e-40
-6.0712417 4.396659298 -0.1849097878 0.8737840992 -0.2460572749 0.4194724848 5.510129769e-40
1.202141251 2.96790857 2.006595844 -0.2961834108 0.8329397009 0.4674257608 3.673419846e-40
-0.8312980875 7.776905349 -2.002409247 0.5619257034 -0.6624008803 0.4954438189 3.397913358e-39
-6.266684571 -0.233519851 0.246785376 0.9928966823 0.0519104779 0.107058305 2.755064885e-40
-0.6643271721 3.108214066 -0.5759655273 -0.229338096 -0.9562485525 0.1816390475 3.673419846e-40
4.600249326 2.687892015 2.208456315 0.375243097 0.7117345788 0.5938236333 3.673419846e-40
-3.807012592 6.213436602 -2.035999253 0.7240808514 0.6162555233 0.3097354526 6.428484731e-40
-3.715309747 6.176511688 -2.207425238 0.8288029908 0.4806255101 0.2865043132 6.428484731e-40
-3.70498468 5.991246031 -1.992701873 0.8628863399 0.4802730739 0.1573687989 6.428484731e-40
-3.662804444 5.870714866 -1.973279783 0.9228353554 0.3804139205 0.06049922224 6.428484731e-40
-4.430347879 4.315263006 -1.708096987 0.161885363 0.1326530911 0.9778528962 6.428484731e-40
-4.385481351 4.610223725 3.696124177 0.3839910547 0.4652676 0.7975443124 4.591774808e-40
-4.893140286 7.010127644 -2.902235197 -0.5709460349 0.7277050169 0.3800868764 5.510129769e-40
-5.010430032 7.016482076 -3.181817281 -0.7096306567 0.6225795737 0.3298772581 5.510129769e-40
5.634241722 2.175255775 1.879107331 0.6372697378 0.6404692126 0.4285865944 9.183549616e-41
5.700277351 1.977535293 2.047741864 0.6393599082 0.5867176934 0.4969720878 1.836709923e-40
6.600855705 0.8107021425 1.696139759 0.8534951914 0.3831142591 0.3532271546 9.183549616e-41
6.477116769 1.309874414 1.321146192 0.8477681073 0.4814816425 0.2224065291 1.836709923e-40
6.715412123 1.039450113 0.6213843387 -0.8877848004 -0.4521757198 -0.08587937217 1.836709923e-40
0.9232439508 1.755642099 3.074826406 -0.2149648543 0.4776555773 0.8518422746 2.112216412e-39
-4.673848864 5.176322939 3.343701189 0.04705722739 0.6808144335 0.7309427642 4.591774808e-40
-4.670405236 2.07823021 4.29433672 -0.02281718968 -0.4828448932 0.8754085817 5.510129769e-40
4.028653637 1.887679136 2.919901938 0.2017826572 0.4544323449 0.8676260734 3.673419846e-40
3.927388713 1.886987051 2.941204759 0.1961000403 0.4459046388 0.8733348884 3.673419846e-40
-5.660125778 1.455337925 1.977185255 -0.7812708956 -0.5230303756 0.3406684809 1.102025954e-39
6.842926901 0.4771683385 -0.9741497154 -0.8873360722 -0.3441217404 0.3069444947 2.479558396e-39
-5.073577887 4.06667549 4.188139993 -0.060752189 0.4381664444 0.8968385242 5.326458777e-39
1.023463555 1.756746642 3.100291767 -0.2052480972 0.4653690722 0.8609906185 2.112216412e-39
1.123593756 1.757658233 3.12493361 -0.1954955767 0.4543274295 0.8691191324 2.112216412e-39
-0.9534059429 7.532157808 -1.038575502 0.412203811 0.3593636503 0.8372250504 1.469367939e-39
-1.027791074 7.525161865 -0.9802114387 0.3269535654 0.4318035548 0.8406230167 1.469367939e-39
-1.106019796 7.523492699 -0.930882735 0.2187965731 0.5269722041 0.8212358709 1.469367939e-39
-1.18262098 7.534734894 -0.8928993112 0.08985434525 0.6216641162 0.778113053 1.469367939e-39
-3.532195845 2.218928122 -1.982478338 0.2518423111 -0.4249130828 0.8694965914 7.346839693e-40
-4.259950425 7.170847767 -5.607496043 0.8641309679 0.1691890297 0.4739754661 1.010190458e-39
-6.420353143 5.079817056 1.510125005 0.9560558574 -0.2202281868 -0.1935374465 4.591774808e-40
1.226453429 1.753527575 3.151541246 -0.1844673686 0.4425466842 0.877567218 2.112216412e-39
1.326967494 1.753457809 3.174508346 -0.1722576708 0.432883698 0.8848384027 2.112216412e-39
1.425519278 1.757708871 3.193454091 -0.1607912443 0.4260191331 0.8903111108 2.112216412e-39
2.819968558 -5.512565457 3.724952991 0.1739552595 -0.3931109826 0.9028861075 1.836709923e-39
2.921831756 -5.518504369 3.707186774 0.1706463461 -0.407423622 0.8971542882 1.836709923e-39
2.829411154 -5.811625143 3.620813038 0.1476832032 -0.6461751806 0.748763853 1.836709923e-39
0.5284225254 1.875514861 2.864761394 -0.2650963359 0.5627895112 0.7829379916 2.755064885e-40
-6.369718134 3.156761236 -0.3733291799 0.8935088702 -0.1034887266 0.4369576437 9.183549616e-41
3.725789182 1.886358819 2.985820975 0.1904741367 0.4304554196 0.8822855178 3.673419846e-40
-4.940586991 7.499062463 -4.536487142 -0.3697193043 0.8534933195 0.367228525 5.510129769e-39
5.443697853 2.304354787 1.952489968 0.5864466159 0.6636700023 0.4643516929 9.183549616e-41
5.767135888 0.7220633986 -2.338953219 -0.5666167192 -0.3821166929 0.7300221411 1.469367939e-39
6.932429295 0.6286486078 -0.3784598649 -0.9159481512 -0.3807725 0.1266936762 9.183549616e-41
2.576284823 1.826443376 3.26232497 0.06377462398 0.3925170673 0.9175310072 3.673419846e-40
-4.078801213 5.173326317 3.189436383 0.3796342124 0.5200204725 0.76515134 3.673419846e-40
6.918151125 0.6273546719 -0.4783548982 -0.9110387361 -0.3807503664 0.1582326759 9.183549616e-41
6.632759998 0.4680235068 -1.454741076 -0.8319952538 -0.3383156564 0.4396889972 2.479558396e-39
-4.565585954 3.227015609 4.378403947 0.2345633391 0.1785864831 0.955555811 3.673419846e-40
-1.311368142 7.203215406 -0.7227045361 0.2640247511 0.4506370834 0.8527702797 1.469367939e-39
1.215406367 3.375472529 -0.03158514232 0.234111217 -0.9689466805 0.07958811792 3.673419846e-40
3.108607619 3.659073994 0.2336236773 -0.04577160812 -0.9985384126 0.02874018934 9.183549616e-41
-3.676630076 5.590771746 2.720976223 0.3599293505 0.6345297464 0.683975777 9.183549616e-41
6.120862853 1.853508734 1.350790092 0.7824771381 0.5821418433 0.2209986484 9.183549616e-41
4.770195247 -5.553797205 3.174521868 0.5854346644 -0.452248594 0.672857684 9.183549616e-40
4.453969046 -0.2335742745 3.995007534 0.3755087441 0.2947790539 0.8786913522 3.673419846e-40
3.378112256 3.625879319 0.7597493027 -0.1230718169 -0.9872666927 -0.1007859386 1.744874427e-39
1.528573805 1.752147543 3.217045631 -0.1465125801 0.4172986886 0.8968811897 2.112216412e-39
6.49181478 1.454555337 0.4219368807 -0.8461253998 -0.5316217034 -0.03808112718 1.836709923e-40
-5.272113771 0.1094535617 -1.854111025 0.7042365543 -0.148514676 0.6942580691 7.346839693e-40
6.818740655 0.6262509943 1.224446061 -0.9059489132 -0.3667501075 -0.2115441451 9.183549616e-41
6.879579767 0.629068897 0.8227456202 -0.9177835587 -0.3758019937 -0.1282427419 9.183549616e-41
-5.241320774 1.809225358 -1.262005727 0.6237845356 0.04775828816 0.780135885 7.346839693e-40
-5.125115258 4.020577728 -1.427497635 0.5009952215 -0.1150718985 0.8577658458 2.112216412e-39
3.285948375 1.059537136 -2.963113933 -0.1425198526 -0.3312111913 0.9327310643 6.428484731e-40
3.587500317 1.060682053 -2.922030937 -0.1522144328 -0.3442376472 0.9264616607 6.428484731e-40
3.788218298 3.452822371 1.339228404 0.2388307131 0.9351591555 0.2616051308 9.183549616e-41
3.113629974 3.594991273 1.093190814 0.049057715 0.9800440347 0.1926318524 9.183549616e-41
2.473533811 3.599595883 0.8602001454 -0.08428622941 0.9895131515 0.1173011275 1.469367939e-39
-0.9692222479 3.109398371 0.9217338753 0.2242528667 0.9257963213 0.3043219072 1.836709923e-40
1.067783944 3.353336559 0.3486778154 0.2536474785 -0.9672377523 -0.01068115735 3.673419846e-40
-0.6350029943 3.147741047 -0.2735686025 -0.217712093 -0.9707724367 0.1010065375 2.755064885e-40
3.628333493 3.29022619 1.85259726 0.1822149582 0.8712124535 0.4558361217 5.510129769e-40
0.4625103133 2.778986839 1.746908994 -0.2772253289 0.8579240435 0.4325649692 2.755064885e-40
-4.416785244 6.749466742 -2.121634257 -0.07087167704 0.875063989 0.4787903723 1.744874427e-39
-3.53118737 6.05408024 -0.0462874928 0.07909148973 -0.9959387857 0.04301710578 9.183549616e-41
-2.032068867 3.748886418 1.124324549 0.8119611047 0.5182671274 0.2685485972 1.377532442e-39
-1.417989494 7.716605986 -1.184059467 -0.3954859347 0.8596646583 0.3233690627 3.58158435e-39
-1.179999194 7.796980408 -1.085549721 -0.2217578147 0.8194552611 0.5285040649 3.58158435e-39
1.264061009 3.37534513 -0.1585817164 0.2280994165 -0.9676069083 0.1082013268 9.183549616e-40
-3.066011434 -5.390605449 3.70885497 -0.2883952481 0.2247859132 0.9307521013 1.19386145e-39
-2.967222425 -5.389557462 3.728031055 -0.2036883745 0.2252328799 0.9527755223 1.19386145e-39
-2.870235405 -5.386692331 3.735923929 -0.1272254061 0.2257586303 0.9658399127 1.19386145e-39
-2.77012146 -5.393948556 3.737883809 -0.05744672802 0.2175506423 0.9743570144 1.19386145e-39
-2.673659335 -5.386436521 3.726255174 0.001104905615 0.2191796774 0.9756838874 1.19386145e-39
-2.584917572 -5.37829554 3.705299885 0.04730976342 0.2210594012 0.9741121739 1.19386145e-39
-1.499893479 6.823813162 -0.5174031315 0.2894802007 0.39642265 0.8712349258 5.142787785e-39
2.20161737 3.559934077 -0.1017236265 0.1314989817 -0.9863053628 0.09954772277 1.836709923e-39
-6.375353692 4.004972224 1.634348135 0.9767248562 -0.1821941236 -0.1131983067 3.673419846e-40
1.814921075 2.672721557 -2.01890522 0.1052489053 -0.7313952813 0.6737830589 1.836709923e-40
-2.074991245 -5.403805858 3.550339268 0.1462471891 0.1576847333 0.976599859 1.285696946e-39
-1.878323017 -5.614491915 3.553803201 0.09133649532 0.01109505777 0.995758276 3.214242366e-39
-1.875079695 -5.409342972 3.48570652 0.1053601748 0.1440224958 0.983949569 7.346839693e-40
-1.7733852 -5.411752369 3.45885133 0.0722085021 0.128743496 0.9890455219 3.214242366e-39
-1.673465848 -5.414489332 3.435850047 0.03009531329 0.1177226275 0.9925903763 3.214242366e-39
-1.572556317 -5.416130985 3.418462096 -0.02458105966 0.1077820311 0.993870618 9.183549616e-41
-1.475395131 -5.417062929 3.411935045 -0.08946869297 0.09440175038 0.9915057552 5.510129769e-40
-3.573433443 8.147495118 -7.005553497 0.8184288779 0.2690918875 0.5077043706 2.295887404e-39
-3.839168571 6.716761383 -2.76964857 0.6535109846 0.6746341024 0.3432087133 1.836709923e-40
-0.6930489065 3.026850327 1.025743752 0.161201285 0.9327164154 0.3225743855 1.836709923e-40
-5.389533647 5.56359848 2.547023983 -0.3800752284 0.8022423624 0.4603802914 0
-3.770261614 6.003383733 -0.2969031152 -0.02932651157 -0.9848706056 0.1707918206 2.020380915e-39
2.462222997 3.244546368 2.015889962 -0.04594174753 0.8669338733 0.4963013351 3.673419846e-40
-6.295782174 -0.2269231263 0.6488219467 0.9974957014 0.06616564025 -0.02498867293 3.673419846e-40
4.750486776 2.569910249 2.254228471 0.4000170979 0.6811599544 0.6131944536 3.673419846e-40
4.676821328 2.631005979 2.23005564 0.3876286381 0.6976799584 0.6024837878 3.673419846e-40
-3.858341464 6.304303243 -2.055032813 0.6630847897 0.6539161017 0.3642969853 2.663229389e-39
-0.5164169664 3.006047742 -0.8160190817 -0.1970786826 -0.9474448791 0.252008321 9.183549616e-41
-0.610023189 3.026850637 -0.8487980748 -0.222276952 -0.9406853599 0.2563279352 3.673419846e-40
-0.7011915321 3.050890677 -0.8778045806 -0.2412051027 -0.9350024413 0.2599817941 3.673419846e-40
-0.7952093867 3.075731555 -0.9116158165 -0.2553032051 -0.9297829831 0.2651864964 3.673419846e-40
-0.8895082858 3.100255135 -0.9454503285 -0.2626966095 -0.9257843881 0.2718708481 2.755064885e-40
-5.739930627 1.069972626 -0.7739278771 0.8741105517 -0.1667875131 0.4561936747 7.346839693e-40
1.021142647 1.898665692 3.01827095 -0.2236043807 0.5020417014 0.8354371377 8.265194654e-40
6.902540287 0.6301994285 0.6225254517 -0.9209512279 -0.3776266903 -0.09616089956 9.183549616e-41
6.627983932 0.6143777316 1.826011413 0.8494443684 0.3510004447 0.3940088232 9.183549616e-41
6.708962467 0.6208406639 1.627027752 0.8754301608 0.3547610809 0.3282782494 9.183549616e-41
6.624713886 1.174650059 0.8209329246 -0.8752896273 -0.470049461 -0.1136730953 9.183549616e-41
-2.574538717 6.259825797 0.04556964494 0.06391061948 0.7760451915 0.6274307082 5.142787785e-39
-2.278949009 6.251127082 0.006553443456 0.2304021761 0.5689446323 0.7894408417 1.010190458e-39
-2.184356108 6.245230254 -0.02092882598 0.275958107 0.4970337968 0.822681304 1.010190458e-39
1.627513616 1.755247631 3.234032473 -0.1314905563 0.4111773282 0.9020218614 2.112216412e-39
-1.074919502 7.700329635 -0.9994742878 0.02936153981 0.6771143293 0.7352918366 3.765255342e-39
6.867091377 0.6282426849 0.9229712182 -0.9155536412 -0.3748088982 -0.1458760429 9.183549616e-41
7.153834719 -0.767608746 1.320401858 0.9617284553 0.1175294553 0.2475180912 2.020380915e-39
-0.3082782507 8.364898968 -1.468543555 0.7396768656 -0.4693880621 0.4822374743 3.58158435e-39
0.2396064636 6.41451206 -1.249731949 0.4403224783 -0.8937686229 0.08540353484 1.469367939e-39
0.3527559404 6.419202955 -1.30463218 0.3608443963 -0.9294671729 -0.07669482462 1.469367939e-39
5.016948524 2.726094853 1.78947567 0.4981832514 0.7667257043 0.4049013983 0
1.896227439 3.534783944 0.3615433988 0.1683512014 -0.9857203569 0.003640201349 1.836709923e-40
6.771811737 0.6246534614 1.42584848 0.8940943661 0.3604515421 0.2658382032 9.183549616e-41
6.494738876 1.318021213 1.209999667 -0.8523494559 -0.4866712798 -0.1914457375 1.836709923e-40
-0.0772570192 2.014884606 2.492672367 -0.1893574895 0.6606797324 0.7263924782 7.346839693e-40
0.1112223614 2.042798344 2.535135622 -0.2381363527 0.654877825 0.7172350465 3.673419846e-40
0.5265127818 2.015055794 2.755577311 -0.2808258751 0.5972788374 0.7512621501 2.112216412e-39
0.628410031 2.014398035 2.801491348 -0.2772711739 0.5834766008 0.7633320067 2.755064885e-40
-4.868838773 2.066683888 4.22857863 -0.1503778603 -0.4940765531 0.8563146961 5.510129769e-40
2.624346586 -5.379918213 3.788193729 0.172919211 -0.3685547295 0.9133818248 1.836709923e-39
2.725904006 -5.3831132 3.769561772 0.1655321286 -0.3835355845 0.9085700687 1.836709923e-39
2.825640403 -5.38556278 3.753878047 0.1604440169 -0.3939179505 0.9050339031 1.836709923e-39
2.925281477 -5.297590681 3.767618298 0.1412196473 -0.4514361797 0.8810575389 1.836709923e-39
3.027958495 -5.393199747 3.724858008 0.1615893425 -0.4109934036 0.8972030465 1.836709923e-39
3.129670447 -5.396647318 3.710621577 0.1656901729 -0.415063435 0.8945776163 2.663229389e-39
3.229604689 -5.398653068 3.696364334 0.1728961269 -0.4154488623 0.8930336904 2.663229389e-39
3.328399682 -5.398276637 3.683267057 0.1824442182 -0.4120150393 0.8927248818 2.663229389e-39
3.428178963 -5.398926875 3.669388843 0.1939023663 -0.4066726702 0.8927593246 2.663229389e-39
3.529243527 -5.400508316 3.653332201 0.2060969472 -0.3996571023 0.8931955267 3.214242366e-39
-2.374503971 6.397122977 -0.05738876687 0.03593964396 0.677130849 0.7349844593 5.142787785e-39
-2.17759435 6.395036482 -0.09033334158 0.1505696076 0.5501850179 0.8213557326 1.010190458e-39
-1.984160695 6.392790653 -0.1530893385 0.2494778797 0.4322127892 0.8665753818 1.010190458e-39
1.728237035 1.753358328 3.251925053 -0.1143067556 0.4043581776 0.9074295729 8.265194654e-40
1.826596237 1.758762101 3.263404091 -0.09811012742 0.4004904515 0.9110333699 8.265194654e-40
-4.874896448 3.643046501 4.346922667 0.08274179459 0.2786962145 0.9568083483 8.265194654e-40
5.374379229 2.640202486 1.354045318 0.6039244165 0.7610987266 0.2366517011 0
-3.415630983 6.067214086 1.300318352 -0.2605299343 -0.9564395172 -0.1317103006 6.061142746e-39
1.065556296 1.785588949 3.091273144 -0.2059491088 0.4683903401 0.8591830154 2.112216412e-39
5.696935988 2.357436431 1.33281324 0.684911746 0.6938164959 0.2225186962 0
6.520480552 1.044324677 -1.091236552 -0.8218850401 -0.4630320834 0.3318226492 2.479558396e-39
-5.574605057 4.102520967 -1.075407847 0.672288578 -0.2194746565 0.7070070318 9.183549616e-41
6.459197562 0.5928150294 -1.669349944 -0.7852337663 -0.354615523 0.507598033 2.479558396e-39
1.925456315 1.762944408 3.273815854 -0.07949708246 0.3969298797 0.91439974 8.265194654e-40
-1.237776933 7.201223325 -0.7897492463 0.2888941708 0.4714686734 0.833221128 1.469367939e-39
-4.874856804 2.796264362 4.430345922 -0.08903427378 -0.0835307232 0.9925197814 1.010190458e-39
6.219806145 1.152781064 -1.588888853 -0.737950047 -0.4694902853 0.484776856 2.479558396e-39
-4.472084218 3.081005099 4.388294429 0.268902273 0.1453966071 0.9521299251 3.673419846e-40
6.486766823 1.033031092 -1.19223592 -0.8131917635 -0.4581421494 0.358921895 2.479558396e-39
6.836067846 0.6289784185 1.124778277 -0.9096821788 -0.3703319263 -0.1879696731 9.183549616e-41
7.274698162 -0.8991863162 0.1222651543 -0.9956455361 -0.0926709716 0.01010234879 2.755064885e-39
-4.549082207 -0.3407923539 -2.467737435 0.4593358947 -0.08640423685 0.8840502496 1.010190458e-39
-4.312377632 -0.1476627581 -2.53345019 0.3968696484 -0.1284165836 0.9088474367 1.010190458e-39
-4.70515808 -0.1620320027 -2.362950779 0.5089638399 -0.1185678787 0.8525828217 1.010190458e-39
-4.508277256 -0.1543670233 -2.458364655 0.4444736614 -0.1267168654 0.8867840776 1.010190458e-39
-4.610695886 -0.1574363887 -2.411622292 0.4760522317 -0.1232555152 0.8707366713 1.010190458e-39
-0.1163961375 8.529094348 -1.648443819 0.7469409899 -0.3132977256 0.5864500769 4.316268319e-39
0.01178243845 8.534549214 -1.867794725 0.7455924634 -0.2139650813 0.6311187071 4.316268319e-39
3.69906196 3.483219704 1.304913938 0.2123986104 0.9441029255 0.2521041379 0
-2.860063573 6.299446905 -0.1130700138 -0.2266655868 0.9007918542 0.3704007926 9.183549616e-41
-3.297656926 6.109355419 -0.2535197588 0.2206182667 -0.9744281398 0.04263075004 2.020380915e-39
-3.572042767 6.009757608 -0.3528757907 0.08580561256 -0.980291881 0.1779472529 2.020380915e-39
-4.125256635 6.030563415 -0.1126831856 -0.02357610056 -0.9951628792 0.09536776881 1.102025954e-39
-0.8772831597 3.083814457 0.9574262953 0.1991664683 0.929880222 0.3092822185 1.836709923e-40
0.3212032418 3.130760118 0.07723631019 0.1534390474 -0.987611781 0.03285465965 2.204051908e-39
-0.9356758566 3.230259683 -0.3052846554 -0.2704893679 -0.9569374421 0.1053861175 0
-4.608991378 5.376953817 3.121002244 0.03149456006 0.7376370137 0.674462548 4.591774808e-40
-4.518330835 6.778957527 -2.150298572 -0.1923253074 0.862227979 0.4685871193 1.744874427e-39
-2.024809025 3.878657695 0.6842933411 0.8349958011 0.534975885 0.1287742778 1.469367939e-39
-4.298037287 5.938661597 2.162836656 0.005652584376 0.9318142954 0.3628913986 1.836709923e-40
-5.054717706 0.02330700796 2.802286103 -0.6402446711 0.1200700474 0.7587291644 1.102025954e-39
-1.295346512 7.765085655 -1.133689039 -0.3137101414 0.8492919996 0.4246045768 3.58158435e-39
-3.180525681 -5.252505004 3.593441427 -0.401207759 0.3455467337 0.8483099604 1.19386145e-39
-3.071578265 -5.254178055 3.636035792 -0.3024027083 0.34693759 0.8877989134 1.19386145e-39
-2.969133139 -5.256150527 3.660895845 -0.214748724 0.3453980525 0.9135552369 1.19386145e-39
-2.870556662 -5.256119332 3.669874231 -0.1368433439 0.3452310215 0.9284877172 1.19386145e-39
-2.772132816 -5.25601658 3.668543173 -0.06729203461 0.3418548935 0.9373403938 1.19386145e-39
-2.673637273 -5.258404467 3.660964586 -0.007582990246 0.3362082158 0.9417571523 1.19386145e-39
-2.577197971 -5.261824031 3.643875214 0.04272025811 0.3285412167 0.9435229984 1.19386145e-39
-1.05555178 3.099164513 -1.15117627 -0.2610190619 -0.9065781954 0.3316399024 2.755064885e-40
6.572017756 0.4579779474 -1.569688277 -0.8134625997 -0.3353362014 0.4752138791 2.479558396e-39
-6.070197212 3.970609725 -0.5627542182 0.8205456422 -0.2716386404 0.5029088368 5.510129769e-40
-2.175318227 -5.26689005 3.517380644 0.1330036534 0.2802923589 0.9506556799 1.19386145e-39
-2.076262625 -5.271393792 3.485236552 0.1292795575 0.2669768605 0.9549922261 1.285696946e-39
-1.978091132 -5.277046119 3.456605338 0.114520486 0.2559514544 0.9598822382 1.285696946e-39
-1.878388137 -5.281192884 3.429334663 0.09109019925 0.248125027 0.9644358696 1.285696946e-39
-1.777714699 -5.282874653 3.403625737 0.06152254822 0.2360719446 0.9697860656 7.346839693e-40
-1.674751239 -5.285136055 3.383270826 0.02133027721 0.2193455947 0.9754140297 3.214242366e-39
-1.572690883 -5.281171056 3.366051949 -0.02686097665 0.2068126802 0.9780117603 3.214242366e-39
-1.473103952 -5.281497214 3.358072575 -0.08266516615 0.1997607643 0.9763514261 9.183549616e-41
-1.379682852 -5.276543975 3.357399706 -0.1363914881 0.173352792 0.9753697614 9.183549616e-41
-1.29314549 -5.275814497 3.366675342 -0.1971556694 0.1556427223 0.9679385234 5.510129769e-40
-1.256664346 -5.282976944 3.376652041 -0.1969187292 0.08414756925 0.9768020274 5.510129769e-40
-4.348447772 6.795064128 -2.239450114 0.01462909699 0.8774065678 0.4795244564 1.744874427e-39
-4.262803434 6.749244193 -2.212214433 0.1268608696 0.8679186285 0.4802328331 1.744874427e-39
-4.186857754 6.6951841 -2.181522956 0.2311693776 0.8477486866 0.4773708026 1.744874427e-39
-4.114240929 6.632065413 -2.151933689 0.3305355458 0.8196523429 0.4678849108 3.673419846e-40
-4.044701109 6.561059709 -2.122393735 0.4221044169 0.7827429429 0.4573197422 1.928545419e-39
-3.977548072 6.482254945 -2.097417641 0.5115924946 0.7396231108 0.4372994092 2.663229389e-39
-3.914593808 6.39408722 -2.074099484 0.5925047991 0.6935722386 0.4097506715 2.663229389e-39
-0.4285552058 2.98822339 -0.7927688445 -0.1678018237 -0.9537997581 0.2492159092 1.836709923e-40
-0.3510271625 -5.900742147 4.25209824 -0.4486923152 -0.4615895737 0.7652517702 1.010190458e-39
-0.1956301658 -5.174813796 4.276702296 -0.431777352 0.2841513613 0.8560527567 1.010190458e-39
-0.08469446899 -5.178508095 4.33477375 -0.3605443125 0.2764832314 0.8908225533 1.010190458e-39
0.04108670573 -5.170359184 4.38053257 -0.2794202902 0.2784032927 0.9189210565 1.010190458e-39
0.130911538 -5.175974583 4.408381736 -0.2162100604 0.2684794577 0.9387076172 1.010190458e-39
0.2297404825 -5.17412947 4.423736955 -0.1472921639 0.2583997222 0.9547432126 1.010190458e-39
0.3301250572 -5.176610111 4.430317582 -0.07803285316 0.2402103172 0.9675793907 1.010190458e-39
0.4270517608 -5.17454618 4.424923004 -0.01059292891 0.2217868584 0.9750376297 1.010190458e-39
0.5230328783 -5.176505665 4.414404397 0.04890344341 0.2021125394 0.97814057 1.010190458e-39
3.618720412 3.56159838 0.9902394839 0.1938723972 0.968161334 0.1583575859 9.183549616e-41
-1.682203374 6.960974738 -0.4874477274 0.09774078843 0.5339111153 0.8398724065 6.428484731e-40
-1.775295795 6.963789455 -0.4617563264 0.01968761937 0.5826078458 0.8125149203 6.428484731e-40
4.864798769 2.842902827 1.733200775 0.4666345482 0.7949694954 0.3876540982 9.183549616e-41
0.2289106443 6.320972812 -1.406075468 0.3813127475 -0.9187876316 -0.1021267676 1.469367939e-39
2.14788839 3.571898157 0.2894570734 0.1392945769 -0.9900837025 0.018201179 3.673419846e-40
1.215037765 -5.19448804 4.180756834 0.2365613281 0.02395312363 0.9713212578 1.010190458e-39
1.315132946 -5.196558486 4.143076068 0.2383808382 -0.006974304132 0.9711467114 1.010190458e-39
1.412740969 -5.199254327 4.11040352 0.2345836339 -0.03867901296 0.971326131 1.010190458e-39
1.516862661 -5.201566451 4.076567136 0.2294254001 -0.0735535755 0.9705430734 1.010190458e-39
1.785063689 -5.029228839 4.008402201 0.1476651646 -0.1699175524 0.9743320915 1.010190458e-39
1.717920043 -5.207453807 4.019584191 0.2132438397 -0.1362376195 0.9674535523 1.010190458e-39
1.82004875 -5.213098147 3.993453041 0.2050725646 -0.169997556 0.9638703617 1.010190458e-39
1.919795611 -5.216321084 3.969096898 0.1975739849 -0.200213942 0.9596243525 1.010190458e-39
2.019801032 -5.219823974 3.945277755 0.1898823717 -0.2292346095 0.9546707174 1.010190458e-39
2.122224096 -5.226545668 3.921307232 0.1826051511 -0.2599077434 0.9482105904 1.010190458e-39
2.222643402 -5.229205489 3.899176168 0.1774080579 -0.2878255363 0.9411072424 1.836709923e-39
2.325751534 -5.238122088 3.876183002 0.170676258 -0.3171432729 0.9328932197 1.836709923e-39
2.428977638 -5.246691137 3.854862776 0.1619710275 -0.3438919971 0.9249344196 1.836709923e-39
2.532688673 -5.256393192 3.834640917 0.1561002571 -0.3695987486 0.915985521 1.836709923e-39
2.633610717 -5.264915627 3.81640216 0.1498100805 -0.391027408 0.9081048981 1.836709923e-39
2.742995098 -5.273658495 3.797196866 0.1451736524 -0.4066527273 0.901974595 1.836709923e-39
2.835991048 -5.275597966 3.783873516 0.14471231 -0.4144869957 0.8984758637 1.836709923e-39
2.814687851 -5.369397011 3.759456131 0.1271502535 -0.5059615017 0.8531329157 1.836709923e-39
3.03964816 -5.28711359 3.756232805 0.1522996151 -0.4293693977 0.8901947807 1.836709923e-39
3.140044002 -5.285044924 3.744446989 0.161095701 -0.4285889977 0.8890217355 2.663229389e-39
3.242179391 -5.284266482 3.730543274 0.1739269145 -0.4246623789 0.8884882061 2.663229389e-39
3.339710872 -5.281640002 3.716863568 0.1864036332 -0.4186601142 0.888806725 2.663229389e-39
3.439936061 -5.281807646 3.700324357 0.2015907563 -0.4110237339 0.8890560484 2.663229389e-39
3.540065111 -5.280744549 3.68286191 0.2168721836 -0.401302651 0.889900353 3.214242366e-39
3.64010833 -5.278893481 3.66402021 0.2349075811 -0.3871803826 0.8915771305 3.214242366e-39
-0.4487102075 3.029123564 -0.6465879207 -0.1733516051 -0.9624097511 0.2090853702 9.183549616e-41
4.526614033 1.877907825 2.810648369 0.2703734034 0.4921143085 0.8274791418 3.673419846e-40
1.12113297 3.2971805 1.050900205 -0.2843150872 0.9363439435 0.2059731796 3.673419846e-40
1.727210345 1.894385334 3.184156015 -0.1233121652 0.4449074511 0.8870464869 8.265194654e-40
1.527677593 1.892520608 3.14705596 -0.1559389226 0.4562239485 0.8760951782 8.265194654e-40
1.3242472 1.897673112 3.098593148 -0.1857609755 0.4721698709 0.8617125234 8.265194654e-40
-0.02471758439 1.812603823 2.685022737 -0.2105953775 0.6141717391 0.7605541807 7.346839693e-40
-2.601701974 4.954586635 1.354036327 0.9252642813 0.2399118309 0.2938168191 2.755064885e-40
-3.740641387 7.676757056 -6.307296664 0.9278138783 0.2668411014 0.2606860829 1.010190458e-39
-1.158599399 7.652814683 -1.914955786 0.5777339321 -0.6340861969 0.513963227 4.040761831e-39
-2.717274639 3.590488301 2.537068868 0.6677055253 0.348686245 0.6577136414 3.673419846e-40
-3.875354492 3.746426532 3.482971098 0.719116575 0.3000992319 0.6267470005 3.673419846e-40
6.933161651 0.6290763087 0.3216689105 -0.9247490876 -0.3776330246 -0.04724853206 9.183549616e-40
5.344005103 2.440126748 1.874935768 0.5701210889 0.6968872767 0.4350977679 0
-1.206987261 7.379861161 -0.8340657659 0.2310132912 0.5014613392 0.8337681839 1.469367939e-39
-0.884254323 7.833914625 -1.148183446 0.1080219578 0.6294013325 0.7695357167 3.58158435e-39
-6.681285153 2.499159676 1.530996334 0.9628595569 0.2423126944 -0.1191051291 7.346839693e-40
7.227654975 -0.6222339189 -0.4764297826 -0.9831348532 -0.1076365704 0.1478520517 0
2.025251838 1.76626876 3.282544737 -0.05895247469 0.3932481011 0.9175404823 8.265194654e-40
2.126221941 1.765162619 3.290630161 -0.03777812952 0.3893927389 0.9202967499 8.265194654e-40
-5.046615672 1.821660444 -1.40852596 0.5728858752 -0.01749380823 0.8194484369 7.346839693e-40
-1.923738203 6.686347715 -1.679187806 0.6028257497 -0.1745189846 0.7785526569 8.265194654e-40
-1.409084544 6.70018426 -1.96671893 0.4175068761 0.06347106807 0.9064543187 8.265194654e-40
-2.405050377 -2.737303108 2.893708124 -0.3034461705 -0.505119256 0.8079448984 2.755064885e-40
-0.898831866 -0.2334720396 -3.247393951 0.2678200168 -0.1664673321 0.9489789597 0
-0.9981685997 -0.2349858295 -3.228580915 0.2456800637 -0.1380520819 0.9594701293 0
2.226457803 1.76334143 3.296251015 -0.01542322186 0.3849026054 0.9228283202 8.265194654e-40
6.651126937 1.176734922 0.5214754539 -0.8747629496 -0.4801487427 -0.06516875699 1.836709923e-40
-4.480540272 4.476321986 3.818818235 0.346773993 0.4663532224 0.8137951031 5.326458777e-39
-5.781485404 5.593767227 2.086277375 -0.5540441744 0.7493770472 0.3625866709 0
2.326920442 1.759875337 3.298950077 0.007959782275 0.3805733758 0.9247164687 8.265194654e-40
3.606390772 3.509884251 1.271120503 0.1842274015 0.9525777904 0.2421896319 9.183549616e-41
-3.255036258 6.12088601 -0.4261706597 0.2041857164 -0.9585946967 0.198505417 7.346839693e-40
-4.021740194 7.013843796 -6.105887663 0.8842219135 0.07802406331 0.4605039122 1.010190458e-39
-4.030061927 6.373376134 -1.873398087 0.4520069178 0.7922259651 0.4099606889 2.663229389e-39
-3.804320066 6.094272299 -1.887230134 0.7344505398 0.6373423519 0.2331890459 6.428484731e-40
2.562982007 3.01994529 2.344342082 -0.008294602301 0.7857931826 0.6184337263 3.673419846e-40
0.1944388366 3.103181617 0.03145717616 0.1098989041 -0.9930768388 0.04148039333 2.204051908e-39
-1.210231954 3.275924794 -0.4814365056 -0.3066288383 -0.9391587879 0.1547886515 9.183549616e-41
-4.804061795 5.415944451 3.049491263 -0.08018293368 0.7713112025 0.6313871444 4.591774808e-40
3.803064302 3.215462919 1.916448579 0.2294025676 0.8472628747 0.4790825432 5.510129769e-40
-4.397914116 6.662375568 -1.973258848 -0.04874513335 0.8753866619 0.480959566 2.571393892e-39
4.520096748 2.62107388 2.327595871 0.3473921856 0.6741045382 0.6518448749 3.673419846e-40
-4.097610604 5.918623611 2.238453027 0.07345769886 0.9113256769 0.4050795936 9.183549616e-41
-3.79331566 5.872858389 2.343214431 0.1960739118 0.8575358108 0.4755915835 9.183549616e-41
-3.173520537 -5.125544523 3.502055759 -0.403988446 0.4572468494 0.7922869771 1.19386145e-39
-3.070205706 -5.124760473 3.543847966 -0.3132443249 0.4615564848 0.829966026 1.19386145e-39
-2.968305437 -5.127161474 3.570852329 -0.2253433841 0.4602128475 0.8587342396 1.19386145e-39
-2.868046978 -5.132463384 3.583854633 -0.1443758141 0.4548944766 0.8787642684 1.19386145e-39
-2.771297275 -5.133154576 3.583164264 -0.07895578131 0.449961689 0.8895507085 1.19386145e-39
-2.673472765 -5.132013673 3.571309577 -0.02510543168 0.4453669043 0.8949961105 1.19386145e-39
-2.576550408 -5.138874712 3.559664249 0.0259829619 0.4314570143 0.901759242 1.19386145e-39
-2.478272482 -5.137592879 3.531802892 0.06032271672 0.4190591569 0.9059528646 1.19386145e-39
-2.38115016 -5.137240164 3.502884313 0.08252963285 0.4043682477 0.9108650723 1.19386145e-39
-2.275994319 -5.134649099 3.470678801 0.09781680008 0.3918655885 0.9148077581 1.19386145e-39
-2.177610462 -5.139913423 3.441955049 0.1043523682 0.3712992279 0.9226307314 1.19386145e-39
-1.961576533 -5.231406882 3.428616121 0.0952416215 0.3436151842 0.9342685046 1.285696946e-39
-1.978010167 -5.147695086 3.389049732 0.09007937184 0.3343246824 0.9381432265 1.285696946e-39
-1.877616006 -5.150816313 3.365105437 0.06997557063 0.3225353157 0.9439673668 1.285696946e-39
-1.776845954 -5.153890528 3.344367677 0.04294812266 0.3079488895 0.9504330277 1.285696946e-39
-1.674665493 -5.147744394 3.323796775 0.009385607194 0.2883270714 0.9574859844 1.285696946e-39
-1.527039314 -5.091001334 3.276322679 -0.07241117466 0.3665312333 0.9275836765 7.346839693e-40
-1.471683017 -5.146568789 3.302164044 -0.07680978612 0.2689595287 0.9600838654 3.214242366e-39
-1.456926292 -5.387188039 3.409667378 -0.06079531343 -0.04713335438 0.9970367981 3.214242366e-39
-1.286103412 -5.134376191 3.30568113 -0.1714924038 0.2392265455 0.9556992285 9.183549616e-41
-1.199170185 -5.129187312 3.317629256 -0.2205400891 0.2295184219 0.9479891155 5.510129769e-40
1.245368209 3.317492172 1.138343939 -0.2758033716 0.9351185776 0.2224539189 3.673419846e-40
0.3840923674 3.084807988 -0.4800267637 0.1572594948 -0.9702236125 0.1842161586 1.836709923e-40
0.2584983189 3.048101931 -0.5263736135 0.1194002475 -0.9736391713 0.1943459418 1.836709923e-40
0.1256794725 3.014635929 -0.5770367945 0.06968609612 -0.9761945138 0.2053974666 1.836709923e-40
-0.12702711 3.026505187 -0.4383413075 -0.03580445773 -0.9861662234 0.1618462871 2.204051908e-39
-0.1106656719 2.932240239 -0.8665180673 -0.03625633477 -0.9599887722 0.2776815358 1.836709923e-40
-0.2113451965 2.97636377 -0.7019279619 -0.07743044298 -0.9700671975 0.2301611584 2.204051908e-39
-0.3276982053 2.977864455 -0.7527150062 -0.1272005685 -0.9620855587 0.2412703736 2.204051908e-39
-0.2699017511 -5.062396383 4.141886083 -0.4808918064 0.3824531406 0.7889693694 9.183549616e-40
-0.1787681162 -5.051987374 4.19329914 -0.4316033655 0.3830275893 0.8167058227 1.010190458e-39
-0.09250672418 -5.036393862 4.227152731 -0.382278413 0.3838512725 0.8405482827 1.010190458e-39
0.008835180853 -5.030168911 4.26930964 -0.3207351841 0.3794163686 0.8678549193 1.010190458e-39
0.1235443197 -5.037686862 4.318238496 -0.2466297883 0.3668656802 0.8969856856 1.010190458e-39
0.2320221172 -5.045393458 4.350730378 -0.1738062855 0.3510679557 0.9200775324 1.010190458e-39
0.3327638701 -5.049445943 4.363221446 -0.1063581702 0.3332726005 0.9368123149 1.010190458e-39
0.4289173642 -5.047754783 4.362814074 -0.04405676509 0.3120528214 0.9490426956 1.010190458e-39
0.5249102504 -5.048854695 4.354510932 0.01464477798 0.2852943454 0.9583280581 1.010190458e-39
0.6201616937 -5.050306797 4.337722763 0.06558145821 0.2571953866 0.9641315291 1.010190458e-39
0.7195920666 -5.049204003 4.312537762 0.1059796051 0.2284359467 0.9677733937 1.010190458e-39
-4.099486167 5.213018044 3.17398091 0.3470978149 0.5471451492 0.7616792584 3.673419846e-40
