# .PCD v0.7 - Point Cloud Data file format
VERSION 0.7
FIELDS x y z normal_x normal_y normal_z rgb
SIZE 4 4 4 4 4 4 4
TYPE F F F F F F F
COUNT 1 1 1 1 1 1 1
WIDTH 507
HEIGHT 1
VIEWPOINT 0 0 0 1 0 0 0
POINTS 507
DATA ascii
-3.147940226 -3.788219057 -0.1039467663 0.7341767543 0.6787136219 -0.01822945119 4.591774808e-40
-3.371659793 -3.689773119 0.2390018044 0.4640555997 0.8853402067 0.02872487935 3.030571373e-39
-3.289347179 -3.740628224 0.419872569 -0.4546615274 -0.8886981896 0.05914747042 3.030571373e-39
-3.128219117 -3.836557681 0.201869087 0.7040317012 0.7088014556 -0.04404384481 2.846900381e-39
-2.943124886 -3.808852404 0.214722377 -0.5828539458 -0.7887659877 0.1952677508 6.061142746e-39
-3.089497695 -3.794426071 0.5596233871 -0.4557588071 -0.875266526 0.1618407184 3.030571373e-39
-4.963280581 -1.964570303 2.256219961 -0.7003342341 -0.5224276422 0.4864168164 1.102025954e-39
-3.901425565 -6.092956617 2.092356865 -0.4816825508 -0.87524879 -0.04383464149 2.479558396e-39
-3.777857484 -6.083760544 1.93828532 -0.3896387009 -0.914209756 -0.1113651865 2.571393892e-39
-3.643183374 -6.068384706 2.24022019 -0.3633526126 -0.9316151954 0.008246610542 0
-3.762097993 -6.115911613 2.007963738 -0.1457813964 -0.9892697911 0.009647011791 4.591774808e-40
-3.408945843 -6.134275105 2.264301551 0.07853368581 0.9959802532 -0.0430789439 2.571393892e-39
-3.555386492 -6.030639447 2.234718367 0.5420355398 0.8369005133 0.07612492596 3.489748854e-39
-3.202707821 -6.100731838 2.294597094 0.1385859466 0.9879286655 -0.06921623567 3.489748854e-39
-3.347836645 -6.099468497 2.411706294 0.147937048 0.9859656861 -0.07737115548 2.204051908e-39
-2.881709344 -6.108490747 2.285488675 0.01962203679 -0.9929773368 0.1166661234 2.112216412e-39
-3.137845113 -6.126034521 2.325673637 -0.02024626417 -0.9967275401 0.07825790495 2.020380915e-39
-3.162826864 -6.094176895 2.130915911 0.223381068 0.9746384981 -0.01344233846 2.112216412e-39
-3.037483523 -6.093106625 2.520280655 -0.04330910959 0.9926155298 -0.1133081246 2.204051908e-39
-2.904491078 -6.088544799 2.346242424 -0.001499009094 -0.9922734433 0.1240611412 2.112216412e-39
-2.548855337 -6.078021318 2.360248713 0.005701936964 -0.9922107598 0.1244399293 3.489748854e-39
-2.267942884 -6.088673524 2.231842488 0.00674645359 -0.9961826134 0.08703267283 1.285696946e-39
-2.636581762 -6.088382428 2.242510253 0.01039049096 -0.9916215772 0.1287582439 3.673419846e-39
-2.122179514 -6.074624556 2.586513312 -0.04582778102 -0.9978820599 0.0461650196 7.346839693e-40
-2.095655196 -6.072275701 2.711825969 0.02520035159 0.9942347047 -0.1042223305 7.346839693e-40
-2.048263974 -6.093424682 2.530961979 -0.04577245601 -0.9987887801 0.01805145454 5.510129769e-40
-1.976741048 -6.097548809 2.402347309 -0.03773664674 -0.9992031905 0.0129972894 1.285696946e-39
-1.817639349 -6.096303772 2.43250344 -0.02464697275 -0.9995884609 0.01467772279 1.285696946e-39
-1.747575365 -6.110429769 2.773058939 0.008072813161 -0.9954283983 0.09516897364 7.346839693e-40
-1.558191358 -6.13204401 2.48069806 0.003144199898 0.9995552887 -0.02965364708 1.285696946e-39
-1.71071573 -6.117710752 2.460114728 -0.02552110755 -0.9995333406 0.01678612702 1.285696946e-39
-1.691466602 -6.113311706 2.387789444 0.02270636661 0.999680265 -0.01112603436 1.285696946e-39
-1.266319109 -6.128564683 2.434880571 0.06214611256 -0.9977659207 0.02451587444 2.938735877e-39
-1.155368695 -6.065263923 2.633535669 0.08399494272 -0.9900937282 0.1125133728 3.306077862e-39
-1.008942273 -6.073316834 2.681796996 -0.1411247148 0.9884052895 -0.0560249806 9.183549616e-40
-0.9761469809 -6.097841104 2.477581463 0.1905852359 -0.9815948178 0.01220169948 2.938735877e-39
-0.9439985256 -6.068858802 2.589240345 -0.2127837011 0.9769309964 -0.01813628374 4.591774808e-40
-0.7335319408 -6.034979765 2.947772338 0.04992764447 -0.9970970219 0.05748703506 3.673419846e-40
-0.8103292796 -6.038110782 2.949174002 0.03050284576 -0.9947178104 0.09801047916 3.673419846e-40
-0.7247729608 -5.964820706 2.66795633 0.3443035316 -0.9384409651 -0.02799344773 9.183549616e-40
-0.5639028749 -5.737523113 2.43531041 -0.4744402129 0.8782037979 -0.06053572335 3.122406869e-39
-0.3793579017 -5.598628234 2.416606862 -0.2724996843 0.9595934869 -0.07017308632 1.928545419e-39
0.04346770079 -5.66121497 2.363845814 0.01362725403 0.9988049569 -0.04693565783 1.836709923e-39
0.1198889636 -5.711668206 2.637056404 0.09418731521 -0.9932658137 -0.06746682844 3.397913358e-39
-0.03977600459 -5.697553466 2.555684404 -0.09698741423 0.9921818517 0.07854052811 4.591774808e-39
-0.00524212166 -5.625991827 2.641186672 0.01945238399 -0.9997530488 -0.0107445863 1.19386145e-39
0.283888331 -5.646312197 2.794549438 0.09566447304 -0.9920863196 -0.08132061834 4.040761831e-39
0.4521248252 -5.61637528 2.539465409 0.03313806138 -0.9960605124 0.08225159275 2.479558396e-39
0.6965234386 -5.614491708 2.567677202 0.0417659273 -0.9941197738 0.09990737029 2.479558396e-39
0.6293333537 -5.611691474 2.621198935 0.04925974445 -0.9958224147 0.07688430291 3.030571373e-39
0.6847412582 -5.656494609 2.542822948 0.04042482724 -0.9957987087 0.08216303931 3.030571373e-39
0.5144147474 -5.681773766 2.945099193 0.1208162889 -0.9615213561 -0.2467389431 7.346839693e-40
0.7823603967 -5.600766336 2.755406209 -0.04432513043 0.9989986993 -0.006073029941 1.377532442e-39
1.08550903 -5.629809078 2.549353024 -0.02962599495 0.9943470091 -0.1019623753 2.479558396e-39
1.138493523 -5.594370137 2.712654336 -0.01901663468 0.9993139906 -0.03177917279 2.479558396e-39
1.428403417 -5.622927375 2.535997454 -0.03625089259 0.9992844228 -0.01079422106 2.938735877e-39
1.123783095 -5.557128078 2.897808203 -0.03130789623 0.9980365703 0.05424776488 3.397913358e-39
1.566552916 -5.568336748 2.889381859 -0.004892218784 -0.9975650865 -0.06956985303 3.397913358e-39
1.338191427 -5.571708728 2.682369952 -0.04373427321 0.9982803842 -0.0390331625 2.938735877e-39
1.699277574 -5.699333715 2.80000098 0.03981974467 0.9591063258 0.2802310541 3.397913358e-39
1.711672303 -5.642594155 3.009538086 0.03723002061 0.9914969246 0.124690714 1.744874427e-39
1.591564459 -5.603043713 2.97970759 0.006849256082 0.9967804051 0.0798868677 3.397913358e-39
2.072347295 -5.664470165 2.898173193 0.02665238222 0.9554804222 0.2938482827 1.744874427e-39
1.59501312 -5.815389688 3.089577875 0.1102071238 0.9215233155 0.3723562393 1.744874427e-39
1.920643338 -5.994700257 3.171644017 0.0273921324 0.9288693527 0.3693932818 3.765255342e-39
1.84769851 -6.062096226 3.246685218 -0.03473483087 -0.9596473122 -0.2790529121 3.765255342e-39
2.043264018 -5.952464635 3.179751611 0.02953303031 0.9445129079 0.3271439545 3.765255342e-39
2.066726376 -5.953751897 3.210132654 0.03795804556 0.9590852522 0.2805613407 3.765255342e-39
2.175667275 -6.04421063 3.385353111 -0.01731793022 0.9963212037 -0.0839294254 3.765255342e-39
2.309505815 -6.010381061 3.304401373 0.02035781541 -0.9997117938 -0.01272354704 3.765255342e-39
2.414615395 -6.046798485 3.400592653 -0.06282857926 0.9665000839 -0.2488577051 3.765255342e-39
2.506744963 -6.000093024 3.408325664 0.07134461683 -0.9213300627 0.3821790957 3.765255342e-39
2.566429979 -6.073586486 3.602780214 -0.1209927213 0.8319873133 -0.5414405524 3.765255342e-39
2.930701367 -6.115148291 3.312478641 0.04698975417 -0.9357650346 0.3494792742 2.204051908e-39
2.821677485 -6.069337292 3.45453212 -0.09606786445 0.8040022394 -0.5868145912 3.765255342e-39
2.947371627 -6.096551079 3.362414976 0.08620031891 -0.8741348839 0.4779724989 2.204051908e-39
2.9654521 -6.064428224 3.501153589 -0.1401236929 0.7336719006 -0.66489916 4.959116793e-39
2.972673969 -6.08035058 3.489005773 -0.1365324785 0.7532915387 -0.6433589512 2.204051908e-39
3.196464408 -5.906277464 3.632848032 0.197293072 -0.5145766051 0.8344377515 1.469367939e-39
3.576032501 -6.073785999 3.368557269 -0.1973009229 0.8014938072 -0.5645175134 1.836709923e-39
3.644954941 -5.985269776 3.393493788 -0.2051576944 0.732791064 -0.6487893163 1.836709923e-39
3.862080228 -5.909773086 3.381377563 0.2695988536 -0.6830604849 0.6787818737 1.836709923e-39
3.654165417 -5.693409878 3.577485454 0.2184656746 -0.381831094 0.8980410707 1.836709923e-39
3.733182916 -6.013070657 3.358760521 -0.2457354607 0.763234233 -0.5975680622 1.836709923e-39
4.061220554 -5.672412988 3.504772946 0.2908428138 -0.3387126473 0.8948095888 1.836709923e-39
4.374714689 -5.619664887 3.368268252 0.3828499538 -0.4074288648 0.8291125575 1.836709923e-39
4.10330689 -5.838309368 3.365250901 -0.3286943474 0.6093727614 -0.72154339 1.836709923e-39
-3.520304323 -2.515370772 2.805932643 0.2788910131 0.6317382675 -0.7232748884 3.857090839e-39
-5.163138627 -1.687137039 2.261959458 0.7266839125 0.4804218776 -0.491045121 1.102025954e-39
-6.041453751 1.602247438 2.985235678 0.5817756182 0.8124177697 -0.03891654541 2.755064885e-39
-4.803065472 -1.836015321 2.658286724 0.590496777 0.485845273 -0.6444128545 2.020380915e-39
-2.036332357 -2.859814127 2.930131844 -0.4190935526 -0.3344076038 0.8441161938 4.591774808e-40
-3.291790068 -2.607574745 2.798688624 -0.2086799078 -0.6406095463 0.7389669176 3.857090839e-39
-5.241733129 1.717910416 3.70161305 0.1942579836 0.7621820481 -0.6175292393 2.755064885e-39
-3.992560642 -1.428309323 3.326582109 -0.3290850469 -0.3086956782 0.8924180692 2.020380915e-39
-4.671676974 -2.172066926 2.459388451 0.5307652172 0.6174548715 -0.5805495378 3.857090839e-39
-4.482508789 1.835107825 3.973964264 0.1617626938 -0.7391709317 0.6538036132 1.836709923e-40
-5.667790009 -1.599829005 1.529749126 0.8220814416 0.5213732208 -0.2288057429 7.346839693e-40
-5.051626138 -2.274401386 1.815093987 0.7265757116 0.591247906 -0.3500194981 7.346839693e-40
-5.147154172 -1.86573613 2.183193745 0.7295587946 0.4859566757 -0.4812380643 1.102025954e-39
-2.517108754 -2.253129998 3.153111232 0.09294322608 0.5372726273 -0.8382718417 4.591774808e-40
-3.156721305 -2.640875268 2.87002429 -0.1473321962 -0.6277183681 0.764370901 3.857090839e-39
-4.960472377 1.855402592 4.066596145 -0.1487550199 -0.7408059025 0.6550408833 2.755064885e-39
-6.277202614 2.024242505 3.449827912 0.7465069879 0.5299186963 -0.4023847567 2.755064885e-39
-6.507623124 2.112699703 2.712753477 0.8198068577 0.5720772518 -0.02538373598 5.785636258e-39
-3.103637082 -2.486981774 2.942694869 -0.136059598 -0.6053148053 0.7842714914 3.857090839e-39
-3.805619808 -2.275892853 3.004156085 0.3493355955 0.5615472786 -0.7500861921 3.857090839e-39
-6.404567976 2.049474607 2.943982919 0.8060583708 0.5850091366 -0.08963377167 5.785636258e-39
-5.311881342 1.296564819 2.522414819 -0.6490403063 -0.6222123992 0.4377195575 3.030571373e-39
-6.008670021 1.779137096 2.332414135 -0.6393267132 -0.7676960133 -0.043636968 5.785636258e-39
-6.241644836 1.851701113 2.21130472 0.7090406824 0.7044688939 0.03138292868 5.785636258e-39
-5.099341682 1.344845957 2.909609634 0.3338072925 0.8527088917 -0.4018211512 3.030571373e-39
-3.884876316 -2.019360474 3.047782529 0.3529766418 0.504371518 -0.788046231 3.857090839e-39
-3.512722991 -2.090828417 3.144088193 0.2551061533 0.5167101892 -0.8172707207 3.857090839e-39
-5.343935645 1.699863652 3.671374746 0.2063129591 0.7640705778 -0.611253724 2.755064885e-39
-3.76611242 -3.243441869 1.66427552 0.34207048 0.8626235089 -0.3726505985 7.346839693e-40
0.05638929903 -6.011128095 4.085453786 0.1378104351 0.8892850433 -0.4360967734 4.683610304e-39
-5.25353887 -1.833021234 2.013325425 0.7290430503 0.5262612421 -0.4376589265 1.102025954e-39
-2.877618078 -2.376471633 3.060343914 -0.09265061404 -0.5729860097 0.8143113019 4.591774808e-40
-5.141831563 -2.230684364 1.709612997 0.7669887614 0.5633585882 -0.3071731449 7.346839693e-40
-4.741057841 -2.707537325 -0.832996534 0.705719506 0.6628936288 0.2500640233 2.938735877e-39
-4.714711261 -2.773261477 -0.8296709486 -0.7005081066 -0.6723570903 -0.2392160858 2.938735877e-39
-4.611498365 -2.877854583 -0.7325431412 0.679336614 0.6828946856 0.2686198303 2.938735877e-39
-4.722377301 -2.822517782 -0.5420207144 0.732550958 0.6374333619 0.2388468191 1.836709923e-40
-4.541143506 -3.014408634 -0.5857824289 0.6462752222 0.7136885216 0.270142613 5.326458777e-39
-4.335513408 -3.187017255 -0.4978935919 -0.5091724529 -0.8262558268 -0.2409247223 5.326458777e-39
-4.491596068 -3.18304644 -0.19622472 0.5719989366 0.8021778204 0.171254083 5.142787785e-39
-4.112156368 -3.388491425 -0.1344337651 -0.3822314523 -0.9107143688 -0.1565198244 1.836709923e-39
-4.264151574 -3.368017589 0.09481805011 -0.4527264986 -0.8912316399 -0.02729251784 1.836709923e-39
-4.002231651 -3.461563361 0.02105072075 0.3568792553 0.9283226814 0.1041834743 1.836709923e-39
-3.824882312 -3.476962025 -0.006759707378 0.3382605393 0.9349636912 0.1068770496 1.836709923e-39
-3.923388565 -3.469002291 0.24409505 0.3729895837 0.9278322469 -0.002468226641 2.846900381e-39
-4.02442535 -3.483421523 0.1527946966 -0.3782842122 -0.9242364658 -0.05184602358 1.836709923e-39
-4.010697152 -3.436723491 -0.02397835293 0.3557449208 0.9280823866 0.1100392431 1.836709923e-39
-3.61057823 -3.534920165 -0.01653711768 0.3659622207 0.9225573324 0.1223095312 1.836709923e-39
-3.325971389 -3.706219744 0.09427122626 -0.5765307514 -0.8146180053 -0.06332296757 2.846900381e-39
-3.594690742 -3.63560046 0.3478992377 0.3940856471 0.9187459869 0.02454209294 3.030571373e-39
-3.569091941 -3.647608801 0.4687453227 -0.3864787675 -0.9220765846 0.02022212412 3.030571373e-39
-3.568746744 -3.637074971 0.376678908 -0.392983144 -0.9195160417 -0.007382249958 3.030571373e-39
-3.405898789 -3.672326408 0.5932076739 -0.3535883863 -0.9313528554 0.08693164996 3.030571373e-39
-3.30771326 -3.69774217 0.2692709212 0.4394632254 0.8982173338 0.008814463916 3.030571373e-39
-3.218598281 -3.754399419 0.4583038891 0.4466798177 0.8903295066 -0.08826386676 3.030571373e-39
-2.819458321 -3.865717405 0.5239751446 -0.5421651796 -0.8111185108 0.2194166798 3.030571373e-39
-5.562319702 1.97712454 3.945530485 0.2650975055 0.5918204325 -0.7612305093 2.755064885e-39
-3.990423526 -5.862430634 2.441819054 0.9812755947 -0.1595286368 0.1079297055 0
-3.820415704 -6.090121686 2.165124548 -0.2381681448 -0.9676862342 0.08282081181 2.571393892e-39
-3.920056939 -6.041140144 2.361226064 0.4655016086 0.8797175324 -0.09698100566 0
-3.865612387 -6.048427701 2.368957046 0.3662198054 0.9242158206 -0.1082043029 0
-3.452872622 -6.05428157 2.413351857 0.3349588669 0.9408911488 -0.05026334206 2.204051908e-39
-3.714647383 -6.020550319 2.252378928 0.6388497895 0.7578367223 0.132493203 0
-3.25649639 -6.108472973 2.366212047 0.1015620673 0.9918647052 -0.07674342339 2.204051908e-39
-3.09634323 -6.113565119 2.460871555 -0.03057352559 0.9939414951 -0.1055725525 2.204051908e-39
-3.036634746 -6.114854417 2.374961851 -0.0202864529 0.9940751104 -0.1067854611 2.204051908e-39
-3.197436265 -6.054921535 2.530671014 0.178558624 0.9750083862 -0.1321947982 1.561203435e-39
-3.007410769 -6.070361736 2.406536957 0.1090195444 0.9853395291 -0.1312278606 2.204051908e-39
-3.03691691 -6.070910742 2.428502987 0.1028869215 0.9857111021 -0.1333713033 2.204051908e-39
-2.820076806 -6.014274888 2.754876119 0.002116981862 0.9945657178 -0.1040891514 2.295887404e-39
-2.750375241 -6.007928955 2.747785374 0.01386302195 0.9946818964 -0.1020575406 2.295887404e-39
-2.683813724 -6.002133898 2.687244941 -0.02197538833 -0.9933422012 0.113085603 2.295887404e-39
-2.339941183 -6.040178363 2.565071075 0.05269199375 0.9958794311 -0.07380862081 5.510129769e-40
-2.547040549 -6.0543613 2.437433558 0.007355262732 0.9926873521 -0.120489506 5.510129769e-40
-2.441527273 -6.050597228 2.503189184 -0.03053930447 -0.9955062771 0.08963594799 5.510129769e-40
-2.208372979 -6.096601452 2.812289937 -0.05992381386 -0.9975516207 0.03605413486 7.346839693e-40
-1.95068833 -6.081815279 2.468633217 -0.02947844595 -0.9991798386 0.02776096664 1.285696946e-39
-2.05513133 -6.07861854 2.538919427 -0.0408177677 -0.9983026528 0.04154182584 5.510129769e-40
-1.678363812 -6.058672127 2.773194635 0.05201994528 -0.974954545 0.2162349657 7.346839693e-40
-1.936276499 -6.103532183 2.487524006 0.04488328596 0.99895833 -0.008230775419 1.285696946e-39
-1.75677023 -6.073054637 2.671625875 0.02737759653 -0.9889887053 0.1454366118 7.346839693e-40
-1.39967424 -6.018066025 3.006650553 0.01368307403 -0.9243751886 0.381239143 7.346839693e-40
-1.295257268 -6.10582545 2.838322259 0.0458399286 -0.9915735176 0.1211637742 7.346839693e-40
-1.398263803 -6.088743243 3.00518367 -0.03405964002 0.9789251828 -0.2013589518 3.857090839e-39
-1.02094106 -6.059152242 2.99724703 -0.004102071987 -0.9857124701 0.1683867548 3.673419846e-40
-0.8631292514 -5.995736908 2.75825545 -0.2560140462 0.95780875 -0.1306108979 9.183549616e-40
-1.295276855 -6.116400008 2.712167639 -0.05032350744 0.9957380988 -0.07728637091 9.183549616e-40
-1.062135032 -6.054676886 3.040072314 0.01635910773 0.9795521031 -0.2005244549 3.673419846e-40
-0.9484755802 -6.01608584 3.057278145 0.1725009789 0.9423018244 -0.2868983863 3.673419846e-40
-0.9334702737 -6.008761143 2.876700072 -0.1032570286 0.9685515398 -0.2263755748 1.836709923e-40
-0.5352561549 -5.970231206 2.902646788 0.1993151206 -0.9746963469 -0.101195425 2.846900381e-39
-0.3542193839 -6.01616983 3.126374228 -0.04828635059 0.9931138422 0.1067395179 2.846900381e-39
-0.0371262684 -5.743435211 2.819858465 -0.1871538534 0.9449337293 0.2684654211 9.183549616e-40
-0.1100794539 -5.710505232 2.809754407 0.170656065 -0.9464254503 -0.2741448059 9.183549616e-40
0.05489803584 -5.637151737 2.602196857 0.01026557516 -0.9999342898 0.005102366921 1.19386145e-39
-0.1355581006 -5.636124067 2.51963366 0.05935365408 -0.9968728514 -0.0521695503 1.19386145e-39
0.06704571203 -5.708046949 2.691231807 -0.1172432296 0.9855004972 0.122649073 3.122406869e-39
0.5471411684 -5.623192709 2.558439492 0.04327952097 -0.9954639442 0.08472555025 2.479558396e-39
0.655952534 -5.588055217 2.896048409 0.0806626555 -0.9952700382 -0.05413951462 4.040761831e-39
0.6316407021 -5.650722994 2.863351785 0.0756183626 -0.9850470272 -0.1548038029 7.346839693e-40
0.5990866858 -5.626338283 2.932314874 0.09873622795 -0.9758691839 -0.1947575243 7.346839693e-40
0.5864640791 -5.701489792 3.052879027 -0.1099166005 0.9316167311 0.3464225849 4.040761831e-39
0.6999673729 -5.653961482 2.986985582 -0.07398406062 0.9603353224 0.2688539144 7.346839693e-40
1.031008061 -5.681174394 3.113562754 -0.00338776515 0.9343688898 0.356291034 1.285696946e-39
0.9457274836 -5.61775275 2.697305944 -0.009088789254 0.9998100614 -0.01724050313 1.377532442e-39
1.072862901 -5.590540208 2.724012451 -0.02372897742 0.999168334 -0.03315985538 1.377532442e-39
0.9764055091 -5.617032862 2.952626201 -0.003578668217 0.9758946204 0.2182129306 2.204051908e-39
1.225788464 -5.733235149 3.099312375 0.07506766156 0.9294490526 0.3612330339 1.285696946e-39
1.362387246 -5.665600072 2.931652703 0.06423665753 0.9560310069 0.2861439598 3.397913358e-39
1.493253393 -5.730164549 3.089794725 0.05562439843 0.9510877554 0.3038716962 0
1.541812742 -6.034437531 3.335749668 0.1152537635 0.9648590855 0.2361429971 1.928545419e-39
1.529554676 -5.918658284 3.299247612 0.08342588519 0.9689562071 0.2327315843 1.928545419e-39
1.376815054 -5.986094504 3.533313397 0.09856953464 -0.9936611274 0.05405192586 1.928545419e-39
1.738557418 -6.042439794 3.581957194 -0.05467825311 0.9386869154 -0.3404073493 1.928545419e-39
1.818386463 -6.016834003 3.737628922 -0.1376481737 0.7741940325 -0.6177997898 1.928545419e-39
1.761300378 -6.035411455 3.665438215 -0.1031119291 0.865265132 -0.4905957413 1.928545419e-39
1.813058942 -5.996881672 3.434669957 -0.0374667162 -0.9919924939 0.1206115136 1.928545419e-39
2.239393785 -6.042031263 3.591489417 -0.1007144989 0.8490402606 -0.5186397841 0
2.407747727 -6.06019138 3.523626229 -0.1056282025 0.8899685672 -0.4436199186 3.765255342e-39
2.320791073 -5.863468806 3.831614703 -0.1926645112 0.4751048314 -0.858577769 0
2.63696573 -5.927667902 3.646702364 -0.1387771234 0.6138353698 -0.7771403019 3.765255342e-39
2.418827459 -5.974973263 3.555433842 0.08689194043 -0.7862668961 0.6117468094 3.765255342e-39
2.38635414 -6.01070559 3.668406381 -0.1574682608 0.7312016345 -0.6637378372 3.765255342e-39
2.789448619 -5.973191135 3.677721457 -0.1774484321 0.5924939292 -0.785788138 3.765255342e-39
2.906237614 -5.79573817 3.73918623 0.2010298673 -0.4079279641 0.8906075278 3.765255342e-39
3.148816368 -5.985400686 3.496698751 0.1884181604 -0.6647125081 0.72294943 1.469367939e-39
2.893439566 -6.042816842 3.566054844 -0.1485536423 0.6924650742 -0.7059914563 3.765255342e-39
2.997581865 -6.031781221 3.511881019 -0.1543572406 0.6927435103 -0.7044716255 4.959116793e-39
3.385615976 -5.781403631 3.668048874 -0.2265738439 0.3548014877 -0.9070723221 1.469367939e-39
3.185671086 -5.883632337 3.531769854 0.2062557089 -0.5926147379 0.7786310776 1.469367939e-39
3.412747006 -5.96920099 3.596629247 -0.2070047195 0.5675495846 -0.7968917838 1.469367939e-39
3.559094706 -5.819037276 3.511203022 0.1787879718 -0.5538990486 0.8131609343 1.836709923e-39
3.535795997 -5.45797177 3.660143696 0.2303286028 -0.217092673 0.9485881646 1.836709923e-39
-5.683142112 -1.493790083 1.666370497 0.8417116075 0.4570950529 -0.2873772475 1.836709923e-40
-5.476711715 -1.690293088 1.916341257 0.7370049746 0.5429169661 -0.4025727702 1.102025954e-39
-5.553111635 -1.862925522 1.08422181 0.8097024494 0.550961508 -0.2020479155 7.346839693e-40
-4.650911604 -2.607742365 1.841735564 -0.5368152017 -0.7671204085 0.3512203271 7.346839693e-40
-4.56523111 1.492857 3.429593472 -0.1836895351 0.8371978377 -0.5151290472 2.755064885e-39
-5.539147333 1.44370301 3.110217005 -0.3225034937 -0.9183562768 0.2293757736 3.030571373e-39
-3.56748428 -3.109002949 2.075205586 0.1964179364 0.8948347058 -0.4008626244 2.938735877e-39
-3.719075622 -2.271013905 2.903847097 0.3268065884 0.5979175079 -0.731909904 3.857090839e-39
-4.420570543 1.583284084 3.53609933 -0.2659896935 0.8348653117 -0.4819226019 5.510129769e-40
-4.318084572 5.27541864 -3.649934734 -0.1901245419 -0.9662751571 -0.173680682 5.510129769e-40
-6.168836834 1.813148056 2.485679275 -0.6744408809 -0.7368802651 -0.04622740643 5.785636258e-39
-6.046438829 1.825268191 1.832255928 0.6962913526 0.7045941101 -0.1368411206 5.785636258e-39
-3.408374233 -3.143342292 1.914919635 -0.2250704462 -0.8908693774 0.3945821166 2.938735877e-39
-3.422253988 -2.453808963 2.93484006 0.2212000889 0.6191284784 -0.7534921685 3.857090839e-39
-5.409424118 1.048753807 2.034223408 0.8391169108 0.1209488821 -0.5303340248 3.030571373e-39
-5.248717998 1.40014879 2.958137767 -0.3310667983 -0.8960899216 0.2956647215 3.030571373e-39
-5.182327868 1.938343782 4.062744213 0.2258588334 0.6648616573 -0.712001941 2.755064885e-39
-5.773437274 1.570136509 2.317099573 -0.6573985997 -0.7476237014 0.09426495681 5.785636258e-39
-6.002201948 1.671004175 2.063138971 0.7572471801 0.6485868601 -0.07688818617 5.785636258e-39
-5.120739484 1.345810496 2.823964782 0.3658691397 0.8397609853 -0.4011748499 3.030571373e-39
-4.424333014 1.803720417 3.977336542 -0.1920510358 0.7723802785 -0.6054296864 1.836709923e-40
-3.163021753 -2.81333406 2.728017187 0.1785611948 0.7104811137 -0.6806853067 3.857090839e-39
-6.364442366 1.974848338 1.44498306 0.7475740484 0.6350894456 -0.1944079173 3.397913358e-39
-4.927601163 1.479369937 3.462648137 -0.05974252911 -0.8744237404 0.4814706144 3.030571373e-39
-3.51416692 -3.158068205 1.902551572 0.2181781037 0.8942876857 -0.3907017409 2.938735877e-39
-5.190607958 1.859523554 3.84651721 -0.2212563558 -0.6751244282 0.7037418784 2.755064885e-39
-2.856239502 -2.152170782 3.208652914 0.07306303799 0.546397813 -0.8343328008 4.591774808e-40
-4.885960093 1.931749513 4.124243764 0.1447106549 0.6896286344 -0.7095570259 2.755064885e-39
-4.642928449 -2.989715709 -0.350889711 0.6910477822 0.685596586 0.2289329247 3.122406869e-39
-4.715528889 -2.795531242 -0.5724047709 0.7301149018 0.6411778126 0.2362694283 5.326458777e-39
-4.670630997 -3.012759958 -0.2769992388 0.695126209 0.6853378365 0.2170520754 3.122406869e-39
-4.649506734 -2.951320426 -0.5160974934 -0.7036477504 -0.6623561678 -0.2572239304 1.836709923e-40
-4.357812733 -3.273896914 -0.2734159941 0.4752824985 0.8570896804 0.1987556954 5.142787785e-39
-4.487263295 -3.180225935 -0.3455555856 -0.5657261634 -0.7931396305 -0.2255735681 2.479558396e-39
-4.257790516 -3.35219567 -0.09864235778 -0.4323950126 -0.8908208021 -0.1395451594 1.836709923e-39
-4.164881803 -3.382465904 -0.02939319224 -0.4076378512 -0.9070733559 -0.1051156949 1.836709923e-39
-4.429390842 -3.271025405 -0.07870391776 -0.5210929194 -0.8458490948 -0.1140240246 1.836709923e-39
-4.182768821 -3.387298784 -0.05422246667 -0.4039863804 -0.906225903 -0.124698104 1.836709923e-39
-4.294357103 -3.335923806 0.2936316272 -0.4765640156 -0.8772899709 0.05700040462 3.030571373e-39
-4.151805667 -3.422857437 0.09728385659 -0.4026231299 -0.9143145459 -0.04385802533 1.836709923e-39
-4.070706267 -3.459996025 0.1907229216 -0.3976031722 -0.9173801463 -0.01803842365 1.836709923e-39
-3.617161111 -3.627852023 0.2594411092 0.4027128547 0.9134678077 0.05830026498 2.846900381e-39
-3.873712703 -3.462916869 0.5570714893 -0.4145002263 -0.9062288107 0.08330009042 3.030571373e-39
-3.441701497 -3.670465926 0.2439678659 0.4445190881 0.8947482173 0.04275988641 3.030571373e-39
-3.806692664 -3.514542916 0.2873854967 -0.3789578208 -0.9253735266 -0.008649066942 2.846900381e-39
-3.343908816 -3.728489989 0.3159920723 -0.4951550339 -0.868749736 0.009766704112 3.030571373e-39
-3.376949199 -3.691654796 0.3884909082 0.4061885515 0.9135875364 -0.0192008824 3.030571373e-39
-3.343933035 -3.698121001 0.7590431013 0.3238314072 0.9340217775 -0.1507864013 3.030571373e-39
-3.136760593 -3.790869293 0.3643863318 -0.5238615547 -0.8464405327 0.09543320281 3.030571373e-39
-2.886034085 -3.819438933 0.8128636924 0.5041007159 0.8392545257 -0.2037996796 3.030571373e-39
-3.125251431 -3.767266434 0.6786868957 0.4002584765 0.9002798749 -0.1711411667 3.030571373e-39
-3.27579284 -2.920439609 2.523512653 0.216653395 0.7914276642 -0.5715798797 3.857090839e-39
-3.887556142 -5.973091751 2.593815328 0.7762595712 0.629260806 -0.03810401643 3.489748854e-39
-3.870644497 -5.815067164 2.43373112 0.9683423595 0.2215819019 0.1149544934 3.489748854e-39
-3.910140849 -5.972234924 2.431845564 0.8713107945 0.4792254968 0.1056429016 3.489748854e-39
-3.566890113 -6.090810016 2.244974825 -0.2039398427 -0.9774456736 0.05484975613 0
-3.640886639 -6.066220929 2.487210027 0.2603138827 0.9612090154 -0.09118065174 3.489748854e-39
-3.567872833 -6.079854402 2.704073001 -0.225492903 -0.9688670081 0.1022236335 6.428484731e-40
-3.409551487 -6.003504319 2.569079046 0.4401392196 0.8941877221 -0.08188885792 2.204051908e-39
-3.44196146 -6.070232809 2.391960396 0.273291408 0.9600603584 -0.0599659447 3.489748854e-39
-3.297741564 -5.99879313 2.762306753 -0.3137185915 -0.9378034018 0.1486789325 1.102025954e-39
-2.948224935 -6.110293042 2.365830891 0.0350847511 -0.9925095456 0.1170207769 2.204051908e-39
-2.926413007 -6.034143089 2.57190703 0.03513274429 0.9876648765 -0.1525902422 4.316268319e-39
-2.932366778 -6.036688274 2.72507386 -0.02318129208 0.9941784524 -0.1052227756 2.295887404e-39
-2.650013425 -6.00661503 2.704635421 0.02635408802 0.9952691076 -0.09351398525 2.295887404e-39
-2.615993071 -6.03357079 2.491127135 0.005916778102 0.9918537757 -0.1272441719 5.510129769e-40
-2.497826437 -6.019666547 2.527016819 -0.02885302281 -0.9938628484 0.1067901758 5.510129769e-40
-2.450925963 -6.067224955 2.729486412 0.05355691426 0.9983261569 -0.02182982863 2.295887404e-39
-2.372635838 -6.064751469 2.565878994 0.04389188716 0.9976069198 -0.0534222404 5.510129769e-40
-2.449884219 -6.019909306 2.803340215 0.06397270525 0.9900275765 -0.1255105201 7.346839693e-40
-2.331916055 -6.03736147 3.045171139 0.04013459149 0.9615813689 -0.2715704062 7.346839693e-40
-2.055081394 -6.11010008 2.818374741 0.02974222544 0.9982402586 -0.0513009378 7.346839693e-40
-2.113196609 -6.120554486 3.072843784 0.007318070401 -0.9936867708 0.1119510935 7.346839693e-40
-2.118723604 -6.093695052 2.743064293 0.04803150407 0.9977321802 -0.04715369772 7.346839693e-40
-1.927430811 -6.113535369 2.898259009 0.01055206366 -0.9945546591 0.1036806828 7.346839693e-40
-1.589253496 -6.095857262 3.031402172 -0.03671264149 0.9756903314 -0.2160568424 7.346839693e-40
-1.570572634 -6.005614732 3.044765338 0.07781481442 -0.8812027342 0.4662902485 7.346839693e-40
-1.337370369 -6.06533595 3.04008629 -0.01695502831 0.968287332 -0.2492632538 3.857090839e-39
-1.554721943 -6.100654935 3.045974531 -0.04174227944 0.9773017579 -0.2076989554 7.346839693e-40
-1.214728994 -6.020876546 3.157489529 -0.04101707789 -0.9303976233 0.3642497246 3.673419846e-40
-1.110639581 -6.043896157 3.046943181 0.02776311307 0.9688846825 -0.2459505672 3.673419846e-40
-0.9872063113 -6.072545685 2.902922564 0.04757322188 -0.9938912952 0.09958354241 1.836709923e-40
-1.114351969 -5.989982822 3.27176282 -0.1553981836 -0.8747109247 0.459055773 3.673419846e-40
-1.131111802 -6.083160682 2.907415062 -0.0427893646 0.990762506 -0.1286807176 3.857090839e-39
-1.035813502 -5.971169626 3.362563712 -0.2972382181 -0.7963261557 0.5267960663 2.846900381e-39
-0.6375052492 -6.059166649 3.327964505 0.2243083243 0.935258502 -0.2738198497 2.846900381e-39
-0.4279812239 -6.024905599 2.993776787 -0.1603347313 0.9741184535 0.1593298859 2.846900381e-39
-0.672667922 -6.045497179 3.345144949 -0.2938588308 -0.8966355999 0.331197205 2.846900381e-39
-0.3888376806 -6.102144436 3.319751716 0.1218288409 0.9836877431 -0.1323486212 4.683610304e-39
-0.2634878065 -6.081859266 3.425030319 0.1325905341 0.9808566041 -0.1426186259 4.040761831e-39
-0.1321366181 -5.754157536 2.802328946 -0.204942683 0.9375480097 0.2810733467 9.183549616e-40
0.3742050322 -5.6346555 2.960478918 0.1257763323 -0.9684683461 -0.2150566828 4.040761831e-39
0.209750603 -5.816497346 3.111635253 -0.1527504362 0.9244630035 0.3493357402 4.040761831e-39
0.1014737366 -5.778466757 2.946366617 -0.1871251705 0.9351970087 0.300650504 2.755064885e-40
0.4937177028 -5.653216924 2.975113166 -0.1325837281 0.9545542555 0.2669227012 7.346839693e-40
0.5305602259 -5.636909004 2.867565642 0.09876441389 -0.9856471356 -0.1369135299 4.040761831e-39
0.4976645269 -5.646879696 2.781826495 0.0945980421 -0.9934033484 -0.06481510448 4.040761831e-39
0.6180971657 -5.795642139 3.205851278 -0.1018185122 0.9061035231 0.4106207446 4.683610304e-39
0.9333325928 -5.691358357 3.116590318 -0.02223619026 0.928063029 0.3717587472 1.285696946e-39
1.146095533 -5.612382514 3.176922035 0.09690092786 -0.9945178812 -0.03929878159 1.285696946e-39
1.011044167 -5.787027041 3.271634456 -0.07295784745 0.9281661062 0.3649449709 1.928545419e-39
0.9824463973 -5.592368769 3.387643421 -0.04258121882 -0.9452413516 0.3235824886 4.683610304e-39
1.020377938 -5.907826485 3.334561788 -0.01382799159 0.9167384313 0.3992485882 1.928545419e-39
1.346815813 -5.929507418 3.298307726 -0.09012788659 -0.9396542864 -0.3300405826 1.928545419e-39
1.148279884 -5.991553365 3.504265761 0.07456105078 -0.985464654 -0.1526435896 1.928545419e-39
1.240232295 -5.994515945 3.478482816 -0.02173182514 0.9882910479 0.1510249397 1.928545419e-39
1.645648984 -6.071238741 3.500060358 -0.02807719283 -0.9937813233 0.1077513468 1.928545419e-39
1.720866041 -6.06049735 3.57830767 0.03150489952 -0.9548525057 0.2954050332 1.928545419e-39
1.641505874 -6.022792906 3.613295742 -0.08363295072 0.9302137247 -0.3573624992 1.928545419e-39
1.588859466 -5.971715817 3.802054003 0.2264009839 -0.7468019544 0.6253234646 1.928545419e-39
2.010854511 -6.083209089 3.538046292 0.03761587374 -0.9592694419 0.279977113 1.928545419e-39
1.680295869 -6.092185325 3.589689738 0.01708690164 -0.9628327288 0.2695573669 1.928545419e-39
2.155187204 -6.087704782 3.482322525 -0.03483390402 0.9911933157 -0.1277591874 3.765255342e-39
2.092224102 -6.033136638 3.578285946 -0.07433012536 0.8764480592 -0.4757245337 0
2.303649538 -6.063487212 3.570143466 -0.1040477108 0.8827447077 -0.4581875761 3.765255342e-39
2.611215668 -5.900834992 3.6621346 0.1371870025 -0.5918108562 0.7943170883 3.765255342e-39
2.418917752 -6.036567885 3.672494081 -0.1532479474 0.7603264022 -0.6312042687 3.765255342e-39
2.417203607 -6.060484431 3.648114408 -0.1311826671 0.8383248766 -0.5291526331 3.765255342e-39
2.772594009 -6.001221902 3.584403357 -0.1411994536 0.6688708103 -0.7298455682 3.765255342e-39
2.872300538 -5.799838228 3.700803653 0.1788573549 -0.4523558886 0.8737186027 3.765255342e-39
3.102786605 -5.993565648 3.586598861 -0.1704294307 0.6225449104 -0.763800788 4.959116793e-39
2.802274182 -5.696686228 3.80768736 0.2034832862 -0.3093849562 0.928910922 3.765255342e-39
3.216054038 -5.794989347 3.664225888 -0.2117149122 0.4137080366 -0.8854504257 4.959116793e-39
3.418917249 -5.70342025 3.672966935 0.2308356743 -0.2953654294 0.9270782894 5.785636258e-39
3.348155884 -5.699195248 3.683961568 0.2306635048 -0.2983850754 0.9261537099 1.469367939e-39
3.715788566 -5.801328363 3.548485541 0.2388659521 -0.4364793186 0.8674265741 1.836709923e-39
-4.926435822 1.665365536 3.713862571 -0.08720885739 -0.8125773952 0.5762921065 2.755064885e-39
-5.643094901 1.480166116 3.18441062 0.3147858228 0.9220971935 -0.2250481093 2.755064885e-39
-5.941864703 1.981228441 3.783381784 0.4906010276 0.5396458252 -0.6841732347 2.755064885e-39
-4.963338178 -1.766990812 2.531068388 0.672113797 0.4785656543 -0.5650114675 2.020380915e-39
-4.228863798 -2.506426266 2.433071369 -0.4722951256 -0.667818368 0.5752877034 7.346839693e-40
-4.173193129 5.334811691 -4.37094262 -0.1817414041 0.9440263303 0.2752895742 1.102025954e-39
-5.047188774 -1.762615083 2.428001939 0.7099838548 0.4768305323 -0.5182234744 1.102025954e-39
-4.836095985 -2.057068363 2.476663477 0.601334564 0.5314615583 -0.5966115606 1.102025954e-39
-3.336539108 -3.169809479 1.900362006 -0.2359037046 -0.8835544954 0.404574957 2.938735877e-39
-6.414388788 2.073693977 2.430404037 0.7990497824 0.5998741263 0.04087147911 5.785636258e-39
-2.826883915 -2.984051352 2.554560529 0.2561079059 0.7109978213 -0.6548975787 4.591774808e-40
-5.411861479 -1.992542382 1.247985476 0.8078696328 0.5489836597 -0.214391226 7.346839693e-40
-3.468533906 -2.471028436 2.904211265 0.2432749352 0.6222966059 -0.7440189783 3.857090839e-39
-6.43294045 1.830075402 1.054737688 0.735979899 0.6462892481 -0.2016030655 3.397913358e-39
-4.20243635 -2.703306225 2.226738443 -0.4956063993 -0.6964199228 0.5190121271 7.346839693e-40
-5.436380803 1.433230439 2.999927293 -0.336118992 -0.9131786778 0.2304966933 3.030571373e-39
-5.967646139 1.827010302 3.691171696 -0.4980461603 -0.6467267827 0.577662956 2.755064885e-39
-5.761034786 1.599651423 2.16414102 0.6894882503 0.7130466432 -0.1271630345 5.785636258e-39
-4.277067442 1.488839408 3.087372479 -0.2534340528 0.615056752 -0.7466434039 3.030571373e-39
-5.199301855 -1.728361956 2.126277621 0.7237623307 0.5032772772 -0.4721017591 1.102025954e-39
-6.016379419 1.718787243 2.459659946 -0.6305497528 -0.7747599033 -0.04641229973 5.785636258e-39
-3.264626649 -2.687373049 2.801738838 0.1907587182 0.6550686645 -0.7310924403 3.857090839e-39
-4.121403984 -2.760810148 2.285742699 0.4845847413 0.6934400195 -0.5332153109 7.346839693e-40
-3.954687181 -2.847205986 2.271136764 0.4170704262 0.7418867768 -0.52502978 7.346839693e-40
-4.135122029 -2.527561009 2.40452492 0.4523271256 0.6716653233 -0.5867417361 7.346839693e-40
-4.990747065 -2.226201162 2.190327996 0.6957538473 0.5367646642 -0.4772947509 1.102025954e-39
-3.455064777 -3.294454528 1.640832325 -0.2641019566 -0.8584606357 0.4396538337 2.3877229e-39
-4.569098971 -3.065023282 -0.4327691251 0.6447967067 0.7218541311 0.2513241344 1.836709923e-40
-4.740571932 1.430121431 3.404978335 0.05684672751 -0.8453750867 0.5311397296 3.030571373e-39
-4.788752681 -2.795600938 -0.3945836521 0.7437289171 0.6251695551 0.2367072562 1.836709923e-40
-4.803254154 -2.745439406 -0.2836236875 0.7570599273 0.6219446191 0.2001128614 3.122406869e-39
-4.701774584 -2.805862106 -0.517524372 0.7285826124 0.6443695021 0.2322828482 1.836709923e-40
-4.653285155 -3.012035216 -0.3186896646 0.6896962701 0.6876463463 0.2268513997 3.122406869e-39
-4.726046711 -2.959445351 -0.2448607687 0.721685774 0.6597125466 0.2096401667 3.122406869e-39
-4.65763001 -3.122046783 0.05330902097 -0.6348523807 -0.7703524119 -0.05932635244 5.142787785e-39
-4.410801356 -3.28809042 0.1688347252 -0.5185899082 -0.8549058297 0.01416084421 1.836709923e-39
-4.572307172 -3.190757688 -0.1405005164 -0.5931159383 -0.7908114676 -0.1510983338 3.122406869e-39
-4.439745106 -3.235929114 -0.1209717089 -0.5417849452 -0.8294936456 -0.1356811151 1.836709923e-39
-4.322330928 -3.3158526 0.2167017765 -0.4920147711 -0.8699112801 0.03429037586 1.836709923e-39
-4.06841078 -3.432564366 0.1700165832 0.3867595622 0.9221479661 0.007756913098 1.836709923e-39
-4.315011546 -3.346025068 0.1314047812 -0.4727476969 -0.8811627982 -0.007857364478 1.836709923e-39
-4.021446307 -3.435810235 0.281031784 -0.3906448872 -0.9200815699 0.02909427384 2.846900381e-39
-3.99528733 -3.435468313 0.4033194983 -0.4074743433 -0.9112998196 0.05913795953 2.846900381e-39
-4.032169417 -3.405007764 0.6081909704 0.4382880981 0.8929169003 -0.1029706373 2.846900381e-39
-3.716098078 -3.613805293 0.4636883988 -0.3914697536 -0.9201669805 0.006645293194 3.030571373e-39
-3.555895681 -3.600473078 0.6610863511 0.3725482959 0.9213406374 -0.111081939 3.030571373e-39
-3.571274548 -3.648631748 0.4010346042 -0.3940865024 -0.9190724437 -0.001292993211 3.030571373e-39
-3.515635038 -3.681618907 0.7568670395 -0.3324884692 -0.9352114874 0.1217821489 3.030571373e-39
-3.598237498 -3.622299619 0.706635343 -0.3762292757 -0.9204661235 0.1058000359 3.030571373e-39
-3.510279074 -3.631279716 0.4309641641 -0.3779800296 -0.9255585067 0.02173816942 3.030571373e-39
-3.169248915 -3.758835409 0.5566095895 0.4116857999 0.9029363973 -0.1233720574 3.030571373e-39
-3.210125889 -3.779813206 0.4707347698 -0.4893221882 -0.8639125564 0.1192429916 3.030571373e-39
-2.908486156 -3.81069902 0.962897562 0.5370490262 0.8191482246 -0.2014312031 3.030571373e-39
-6.430861324 2.081153185 3.062038012 0.8128960622 0.5572339656 -0.1693821115 5.785636258e-39
-4.970611478 1.805480784 3.908622305 -0.1474323195 -0.7392131848 0.6571358905 2.755064885e-39
-3.944720906 -5.773978816 2.701117119 0.9542520417 -0.2511326129 -0.1622820128 3.489748854e-39
-3.922098924 -5.98352548 2.670010689 0.4859594075 0.8645129499 -0.1282997024 3.489748854e-39
-3.937213577 -5.988871135 2.485613633 0.8507387167 0.5237639014 0.04376084444 3.489748854e-39
-3.727104144 -6.052549833 2.606865395 0.3030108272 0.9471848866 -0.1050010919 2.204051908e-39
-3.626387753 -6.006961617 2.662797611 0.4010199835 0.912031069 -0.08592032358 2.204051908e-39
-3.331612069 -6.11613235 2.63170735 -0.06945280175 -0.993784664 0.08699626349 2.204051908e-39
-3.224721025 -6.108916511 2.860351942 -0.01754967729 -0.9930294544 0.1165526126 1.102025954e-39
-3.542304405 -6.06007718 2.920343979 0.241952222 0.9555163409 -0.1686642953 1.561203435e-39
-3.344269012 -6.107089075 2.659540475 -0.08433095844 -0.9920369456 0.09354671588 1.561203435e-39
-3.170490265 -6.039213907 2.782974347 -0.08686264781 -0.9857009743 0.1443899918 2.295887404e-39
-2.84261305 -5.993821251 3.029330896 -0.07563430634 -0.9637931027 0.255699642 2.295887404e-39
-2.750247252 -5.999367023 2.790369839 -0.0339988308 -0.9916065567 0.1247417984 2.295887404e-39
-2.627269701 -6.064914868 3.048141506 0.05650990706 0.9957469629 -0.0727641145 7.346839693e-40
-2.52723119 -6.030390086 3.035400597 0.07270336732 0.9797809745 -0.186395983 7.346839693e-40
-2.391597224 -6.034650016 2.982836698 0.06007093729 0.9772215838 -0.2035422771 7.346839693e-40
-2.258429474 -6.084218356 3.092064328 0.01927953598 0.9853795523 -0.16927917 7.346839693e-40
-2.287611802 -6.037749271 2.848660976 0.04215842886 0.9814922937 -0.186803491 7.346839693e-40
-2.356667521 -6.074804946 3.057119577 0.04667546996 0.9908686435 -0.1264939996 7.346839693e-40
-2.162617236 -6.10658804 2.915425164 -0.03433590067 -0.99752597 0.06134317519 7.346839693e-40
-1.911690531 -6.072124858 3.109470425 -0.09001163084 0.9423232251 -0.3223737672 7.346839693e-40
-2.17492049 -6.081640808 3.224712248 0.04245061095 -0.9474233306 0.3171545022 7.346839693e-40
-1.667825141 -5.927689552 3.333091783 -0.1439621655 0.6380512231 -0.7564162423 3.857090839e-39
-1.89310454 -6.082596108 3.158130193 0.08680191632 -0.9469276257 0.3095052488 7.346839693e-40
-1.80638209 -6.023202578 3.229752116 0.1373605726 -0.8376889019 0.5285918811 7.346839693e-40
-1.534045324 -5.905460976 3.318051719 -0.07676345801 0.6211505379 -0.7799226762 3.857090839e-39
-1.702009415 -6.081733641 3.224467825 -0.07067357904 0.9429802375 -0.3252591535 3.857090839e-39
-1.464386637 -6.063630354 3.134866045 -0.03396290108 0.9497688148 -0.3111040337 3.857090839e-39
-1.182547837 -5.992678241 3.262124803 0.09985023204 0.8867222409 -0.4513907384 3.673419846e-40
-1.200059157 -5.923801426 3.334978829 0.2010918435 0.7321239445 -0.650812262 3.673419846e-40
-1.080388421 -6.020028119 3.006215869 -0.07868450938 -0.953761499 0.2900823175 1.836709923e-40
-0.7308906706 -6.056972805 3.026689046 0.02876553308 0.9960828707 -0.08361494404 2.846900381e-39
-0.9616856707 -6.025234724 3.099288713 0.1484316741 0.9462384881 -0.2874034824 3.673419846e-40
-0.8468591069 -6.059269502 3.021633761 0.0288707433 0.9920114256 -0.1227998846 2.846900381e-39
-0.8397224746 -6.04927611 3.097272513 0.1081020966 0.973718476 -0.2004651245 2.846900381e-39
-0.3695090087 -6.081288948 3.137041008 -0.01559371409 0.998445273 0.05351516529 4.683610304e-39
-0.5664819146 -6.041521596 3.475372179 -0.2928314058 -0.8890559716 0.351893801 1.928545419e-39
-0.5014462919 -6.089479534 3.222701076 0.1170925793 0.9845799743 -0.1299676965 4.683610304e-39
-0.06298032984 -6.072386296 3.535689811 0.09153652386 0.989420571 -0.1125522037 4.683610304e-39
0.02411052156 -6.028769143 3.378505725 -0.03168754396 0.9838946299 0.1759183241 4.683610304e-39
0.1504490676 -6.043305382 3.324001989 -0.05520054552 0.9601453653 0.273995944 3.122406869e-39
0.04791175642 -6.087485264 3.593459358 0.07514973337 0.9886291679 -0.130249322 4.683610304e-39
0.0421593583 -6.053525312 3.63036118 -0.09172131192 -0.9791014228 0.1815147507 4.683610304e-39
0.3747425445 -6.072987949 3.704288157 -0.01182385273 -0.9909171562 0.1339529246 1.928545419e-39
0.5404791887 -5.988799087 3.342431617 -0.05344586765 0.9049263871 0.4221987367 4.683610304e-39
0.6361229799 -6.119311916 3.614835992 0.02554085374 -0.9938294335 -0.1079385098 1.928545419e-39
0.703225235 -6.08060802 3.487969064 -0.07421998764 0.9504009785 0.3020420063 1.928545419e-39
0.8162477436 -5.966296571 3.449696758 -0.1026277006 0.9403094683 0.3244775168 1.928545419e-39
0.6774287308 -5.913548869 3.373337649 -0.09380283286 0.9276982216 0.3613544496 1.928545419e-39
0.8498144531 -6.072771694 3.619640914 -0.1164870276 0.9888058828 0.09324000485 1.928545419e-39
0.9113096579 -6.115267331 3.777588559 -0.1333026647 0.9802316849 -0.1462061675 1.928545419e-39
1.118373934 -6.051852085 3.897612704 -0.2199955826 0.8727823104 -0.4357212208 1.928545419e-39
1.236066686 -6.04872529 3.840524929 -0.2129927844 0.8931316108 -0.3961691552 1.928545419e-39
1.458576997 -6.059029291 3.623578396 -0.06273303183 0.9746047342 -0.2149655291 1.928545419e-39
1.484140261 -6.018748516 3.581572095 -0.07316646432 0.9782789141 -0.1939511142 1.928545419e-39
1.443368021 -6.040387174 3.636433553 -0.08690470909 0.9639025225 -0.2516733967 1.928545419e-39
1.442429057 -5.965669857 3.934031131 -0.2823842473 0.6810277337 -0.6756185039 1.928545419e-39
1.849557436 -6.094004499 3.62365103 0.04122675802 -0.9342267695 0.354289003 1.928545419e-39
1.86672461 -5.94534441 3.913389477 -0.1817380992 0.5771472471 -0.7961609878 1.928545419e-39
2.086208539 -6.09123245 3.581134956 -0.05691162016 0.9395155662 -0.3377448272 0
2.030496882 -6.035484372 3.722104672 0.1174650619 -0.7737518748 0.6225030084 1.928545419e-39
1.985096674 -5.986272482 3.770666162 -0.1531117531 0.6815391036 -0.7155845452 1.928545419e-39
2.005311357 -5.785345288 3.943529566 -0.2127678344 0.3229290504 -0.9221966586 1.928545419e-39
2.488188884 -6.047300526 3.611871777 -0.1377220088 0.7949446792 -0.5908431308 3.765255342e-39
2.511967887 -5.856537561 3.867348488 -0.220979388 0.4370912005 -0.8718482623 3.765255342e-39
2.667981793 -5.874894196 3.811069638 0.2269444427 -0.4679691983 0.8541083358 3.765255342e-39
2.486054614 -6.010238372 3.665611883 -0.159250234 0.7095961632 -0.6863764624 3.765255342e-39
-5.396873201 1.959555684 3.928235115 0.2613291677 0.6057300747 -0.7515305334 2.755064885e-39
-2.477457118 -2.778037401 2.837810005 -0.2593988421 -0.5435022886 0.7983216789 4.591774808e-40
-4.784390085 2.226202518 4.363529845 -0.1146410354 -0.3437611848 0.93203309 1.836709923e-40
-6.327727356 2.064958652 1.839968431 0.7734853237 0.6291866109 -0.07645039375 5.785636258e-39
-4.280294128 1.435109795 3.059958263 -0.1953551609 0.5335667331 -0.8228869317 3.030571373e-39
-6.092822478 1.821883915 1.784267734 0.7108072295 0.6916385742 -0.1280201751 5.785636258e-39
-5.111886013 -2.020301167 1.917896541 0.7442444833 0.52995476 -0.4065071972 1.102025954e-39
-4.206876005 -2.91871875 1.840895133 0.4997442083 0.8048722228 -0.3200569186 7.346839693e-40
-3.843279961 -2.156306396 2.987257893 0.3530842853 0.5505440974 -0.7564606297 3.857090839e-39
-3.942797238 -2.787238395 2.392967103 0.4112811173 0.7025292857 -0.5807757272 7.346839693e-40
-5.127395267 1.218507714 2.660939002 -0.5871062775 -0.5673903324 0.5773858585 3.030571373e-39
-3.938041087 -2.125382627 2.925473598 0.3549202259 0.563595966 -0.7459163628 3.857090839e-39
-5.023746336 -1.892500865 2.304793843 0.7140862753 0.4953492011 -0.4946816757 1.102025954e-39
-3.319349208 -2.995850145 2.330711301 -0.2193019797 -0.8402201504 0.4959200949 2.938735877e-39
-2.533465264 -2.563438 2.960582825 -0.1609336857 -0.5471583817 0.8214122316 4.591774808e-40
-3.572199663 -1.643609232 3.337717116 0.2243589238 0.3256075978 -0.9185002806 2.755064885e-39
-3.412007487 -3.29408014 1.62242481 -0.2656618453 -0.8570427378 0.4414765334 2.3877229e-39
-5.135047277 -2.340792746 1.454698058 0.737946263 0.6340781763 -0.2310415098 7.346839693e-40
-3.42541839 -3.03680723 2.235775463 -0.2049268022 -0.8663655842 0.4554291166 2.938735877e-39
-4.653245613 -2.320312876 2.362857075 0.4833997055 0.6636554196 -0.5708644399 7.346839693e-40
-2.312865568 -2.76301986 2.838684725 -0.3235031594 -0.4884797987 0.8103907651 4.591774808e-40
-4.389723132 -2.737184403 1.937819115 0.5129945551 0.7658545119 -0.3876898928 7.346839693e-40
-2.493970033 -2.395566644 2.999408394 -0.09655302636 -0.5556670405 0.8257794217 4.591774808e-40
-5.367702242 -2.021785697 1.514045355 0.7873051664 0.5576711644 -0.2629704306 7.346839693e-40
-4.449319522 5.313489976 -4.114198179 0.3267508647 0.9339333465 0.144921968 1.836709923e-40
-2.458809949 -2.373196882 3.103084895 0.1433404893 0.5274203551 -0.8374253836 4.591774808e-40
-5.065786667 -1.819233344 2.237503598 0.7228712407 0.4989838408 -0.4779877571 1.102025954e-39
-2.853583276 -2.946725872 2.602391704 0.2301934203 0.7055197836 -0.6702632499 4.591774808e-40
-5.891008543 1.682759305 1.99022554 0.7168232886 0.6846892292 -0.1317764486 5.785636258e-39
-5.364957358 -1.86738414 1.613633842 0.7789473978 0.5597103945 -0.2827812331 7.346839693e-40
-3.145012249 -2.609374105 2.822715033 -0.1694023149 -0.6336323115 0.7548595561 3.857090839e-39
-4.639641 -2.020939163 2.634201969 -0.5280255113 -0.5617300244 0.6369053612 3.857090839e-39
-3.30274681 -3.155625701 1.934375423 0.2388863714 0.8824012604 -0.4053409888 2.938735877e-39
-4.117953724 -2.574080869 2.409075299 -0.4577087846 -0.6683403664 0.5863649232 7.346839693e-40
-3.997129458 -2.649945615 2.519999873 -0.4268466191 -0.6669747292 0.610693601 3.857090839e-39
-5.280864622 -2.09852378 1.481011056 0.7946040757 0.5529841981 -0.2506248981 7.346839693e-40
-4.822954131 -2.005827666 2.508150328 0.6053383223 0.529950398 -0.5939007419 3.857090839e-39
-4.756467884 -2.029115782 2.534880578 0.577594671 0.5535420764 -0.5999796377 3.857090839e-39
-3.634891091 -2.907157455 2.43018512 -0.2763259175 -0.7772323133 0.5652910034 3.857090839e-39
-4.75680272 -2.990410931 0.03989648772 0.6984427739 0.7097811344 0.09158838839 5.142787785e-39
