# .PCD v0.7 - Point Cloud Data file format
VERSION 0.7
FIELDS x y z normal_x normal_y normal_z rgb
SIZE 4 4 4 4 4 4 4
TYPE F F F F F F F
COUNT 1 1 1 1 1 1 1
WIDTH 502
HEIGHT 1
VIEWPOINT 0 0 0 1 0 0 0
POINTS 502
DATA ascii
-0.2779204508 -1.380502259 2.598655945 -0.1080390399 -0.4517097042 0.8855991808 1.928545419e-39
-0.2777985191 -1.143291344 2.723412268 0.109327114 0.3935444635 -0.9127816483 4.7754458e-39
-0.1798753601 -0.5461877554 2.901678216 -0.06737922209 -0.2684579938 0.9609320194 2.112216412e-39
-0.273278394 -0.5091890762 2.899386129 0.09246150969 0.2513404839 -0.963472278 1.836709923e-40
-0.01006809677 -0.6512226313 2.881859422 -0.02395000026 -0.304662916 0.9521590755 4.316268319e-39
-0.2807031515 -0.1282689979 2.992060066 -0.143555681 -0.136550862 0.9801763252 3.673419846e-39
-0.01974012705 0.1030806447 3.071480358 0.006117660465 0.01360991523 0.999888666 1.469367939e-39
-0.01337957254 -0.007611380577 3.058809694 0.01771116624 0.07166480452 -0.9972715129 1.469367939e-39
-0.1759927445 0.1807208577 3.040600064 -0.06760785413 0.02294128006 0.997448182 2.846900381e-39
0.1175005838 0.5251012439 2.954905049 0.04218696144 0.2838707023 0.9579340711 2.755064885e-40
-0.2811851984 0.6953469938 2.902016946 -0.07154406579 0.2895807477 0.9544760014 6.520320227e-39
0.01568938464 1.235369909 2.642236603 -0.02253966364 -0.3960438384 -0.9179549235 1.653038931e-39
-0.2087029365 1.17904302 2.687160137 -0.03557433712 0.397881398 0.9167468896 2.571393892e-39
-0.06119823375 1.463999483 2.559064186 -0.02427320627 0.4497881417 0.8928053758 2.571393892e-39
-0.149700318 1.711850731 2.406063233 -0.05276753005 0.5830850666 0.8106956228 7.346839693e-40
-0.2383309083 1.83847651 2.299829027 0.06308484883 -0.6030679913 -0.7951913605 7.346839693e-40
0.1301632394 2.039283521 2.183623002 -0.01009245783 -0.6482884768 -0.7613279143 2.571393892e-39
0.1527775526 2.227113053 2.006778573 -0.06336972034 -0.7361985554 -0.6737922272 4.959116793e-39
-0.3165196741 2.279943935 1.932525243 0.1078629208 -0.7670484182 -0.6324573617 9.183549616e-41
-0.1272544768 2.352549691 1.828818147 -0.05127500628 0.7964843194 0.6024812052 1.102025954e-39
-0.0122899765 2.399547954 1.783308483 -0.01216748794 0.8072782672 0.5900455505 1.102025954e-39
-0.1440251404 2.626447656 1.438385784 0.08092476103 -0.9022447945 -0.4235628806 1.102025954e-39
-0.1291428557 2.627969629 1.407144352 -0.0714964363 0.899597498 0.4308278093 1.102025954e-39
0.09308940609 2.854184209 0.8540843497 0.005095657531 0.9719426034 0.2351629436 3.122406869e-39
0.1231540166 2.904368167 0.6800434085 0.01982398034 0.9818111904 0.1888221283 3.122406869e-39
0.05179004733 2.924008936 0.6071272324 -0.002002791053 0.9844868298 0.1754470597 3.122406869e-39
-0.2082849705 2.968227328 0.2259504303 -0.0530906044 0.9963312915 0.06712186917 3.122406869e-39
-0.1835707733 2.938087728 0.4592952004 -0.06280642951 0.98814427 0.1400937333 3.122406869e-39
-0.1083271908 2.98536448 -0.0906741351 0.01314241014 -0.9994734854 0.02966528422 3.122406869e-39
0.199435439 -2.974196129 0.2100346833 0.05436955875 -0.9953351982 0.07969814499 1.010190458e-39
-0.1132034796 -2.972193654 0.2242116863 -0.04309421866 -0.9959914823 0.07838275043 5.510129769e-40
-0.1242652526 -2.914418886 0.6305945152 -0.02472423334 -0.9856006491 0.1672724506 5.510129769e-40
-0.0811881809 -2.909226786 0.7004938822 -0.003765108383 -0.9830647922 0.1832196448 5.510129769e-40
-0.2043983709 -2.907887775 0.613107117 -0.06230490031 -0.9851273356 0.1601319208 3.489748854e-39
0.03648203488 -2.861312633 0.910628945 0.0386884 -0.9706466848 0.2373778021 5.050952289e-39
-0.09389664451 -2.82055963 0.9901603311 0.02608967102 0.9615365947 -0.2734350126 5.050952289e-39
-0.05141647668 -2.714010232 1.357930976 -0.005544702874 -0.9104453809 0.4135921477 2.571393892e-39
-0.2488527641 -2.646151852 1.450810786 0.08818682257 0.8953445478 -0.4365560961 1.836709923e-39
-0.06510918776 -2.43584925 1.811813469 0.02690431162 0.7868324575 -0.6165799557 1.561203435e-39
0.02454384104 -2.215840617 2.020491632 -0.01001723062 -0.6956019944 0.7183575158 3.489748854e-39
-0.1152655215 -1.976339019 2.215746917 0.02191514813 0.6230864705 -0.7818458777 9.183549616e-41
-0.2489944625 -1.973257189 2.198293091 0.09192941534 0.6237494949 -0.7761994268 4.591774808e-40
-0.4700327916 -1.824191237 2.297887471 0.1197294092 0.6017509471 -0.7896585757 6.428484731e-40
-0.3711584247 -1.79607158 2.316497298 0.09951403623 0.5921947127 -0.7996263996 2.479558396e-39
-0.2076275421 -1.384121942 2.600246509 -0.0745323161 -0.4480024377 0.8909201702 9.183549616e-41
-0.4879962303 -1.274007556 2.62848138 -0.1633708213 -0.4188259034 0.8932495941 2.479558396e-39
-0.1830775401 -1.005917797 2.783449166 -0.06071459245 -0.3549002814 0.9329306129 8.265194654e-40
-0.2931694694 -0.5782577615 2.872782567 -0.1150351799 -0.2733145489 0.9550214996 2.112216412e-39
-0.3169333292 -0.7007958307 2.854058054 -0.04909411004 -0.2874029187 0.9565507465 2.112216412e-39
-0.09403965956 -0.5425590426 2.912385453 -0.05753416322 -0.2958625601 0.953496285 2.112216412e-39
-0.08704274956 -0.1207693436 3.034274549 -0.08375304913 -0.05626446995 0.994896847 3.673419846e-39
-0.513788546 -0.2236519182 2.94942619 -0.2164453673 -0.156097173 0.9637349613 3.765255342e-39
-0.4770806484 0.3986637796 2.941293241 -0.1920260733 0.1232694066 0.9736172968 3.765255342e-39
-0.2975783628 0.5157449529 2.967426066 -0.08331308096 0.2486780399 0.9649964575 6.520320227e-39
-0.5470957065 0.8006388977 2.84722431 0.1618119235 -0.3156757828 -0.9349682891 8.265194654e-40
-0.5470969988 0.8285316334 2.841789269 0.1630064697 -0.3249123426 -0.9315905004 8.265194654e-40
-0.3253157789 1.053570284 2.719832627 -0.005995687995 0.3996538735 0.9166465148 2.571393892e-39
-0.2296736396 1.386584764 2.598909027 -0.04502158468 0.4356991312 0.8989656968 2.663229389e-39
-0.1035875127 1.486464276 2.564053027 -0.02875857636 0.4762714336 0.8788278932 2.571393892e-39
-0.05574345968 1.649289904 2.490401223 -0.05412658232 0.540367111 0.8396866668 2.571393892e-39
-0.3854945798 1.762767299 2.355168651 -0.1111950238 0.6063121593 0.7874142697 7.346839693e-40
-0.2211912836 2.120190178 2.114186923 -0.06722398162 0.6971672368 0.7137498023 7.346839693e-40
-0.205634253 1.992903203 2.210665803 -0.07398927712 0.6273152895 0.7752426165 7.346839693e-40
-0.3948739731 2.16839378 2.050089712 -0.1322277304 0.7173648826 0.6840346866 3.397913358e-39
-0.09197345909 2.41042585 1.735352249 -0.05886177549 0.8173355765 0.5731473169 2.846900381e-39
-0.04174933785 2.619694109 1.451209798 0.05499560298 -0.9002974137 -0.4317870431 2.846900381e-39
-0.3750817714 2.602440945 1.441497197 -0.146112011 0.8898704958 0.4321825782 3.58158435e-39
-0.1361455047 2.69420053 1.285178547 0.08968569736 -0.9195027348 -0.3827155553 5.142787785e-39
-0.1123747075 2.771011954 1.082165534 0.05068660307 -0.9451750411 -0.3226065869 5.601965266e-39
-0.1818827225 2.838074781 0.8927908868 -0.06787124931 0.964537326 0.2550710496 3.122406869e-39
-0.02085333779 2.931515725 0.5654512699 -0.02562310592 0.9849532919 0.1709107052 3.122406869e-39
0.05077001369 2.978051744 0.2380950117 -0.02489365313 -0.9977754116 -0.06184281769 3.122406869e-39
-0.05492748657 2.98800561 -0.01769239801 0.01533141891 0.9998611812 -0.006524257221 3.122406869e-39
0.1875972025 2.982005245 0.002164506799 0.06643324306 0.9977438845 -0.009683240629 3.122406869e-39
-0.03200062467 -2.978182703 0.1886890475 -0.02179933005 -0.997233436 0.07106520504 2.204051908e-39
-0.0641708807 -2.988260747 0.1131344409 -0.02001990421 -0.9989872636 0.04029454868 2.295887404e-39
0.1164539817 -2.948806178 0.4779465351 -0.03864581578 0.9878205882 -0.1507215524 2.295887404e-39
-0.2639858278 -2.895738402 0.6624319439 -0.07918692288 -0.9820138856 0.1714005829 3.489748854e-39
0.07500465341 -2.897433894 0.7142125173 -0.04225947867 0.9776819822 -0.2057962054 5.510129769e-40
-0.3638774732 -2.719044527 1.272632902 0.1183901832 0.9173231149 -0.3801342755 3.214242366e-39
-0.4573455447 -2.642002532 1.456624643 0.1371349791 0.8945739957 -0.4253602753 1.836709923e-39
-0.4405137078 -2.65002197 1.424565298 0.1091205059 0.8923664033 -0.4379211315 1.836709923e-39
-0.1909978236 -2.523951421 1.628039954 0.06521650531 0.8429567101 -0.5340138504 2.755064885e-39
-0.3037373861 -2.216026084 1.976536112 0.1304216524 0.7204076862 -0.6811776261 2.755064885e-39
-0.1957621493 -2.340237685 1.879170938 -0.101929654 -0.7589778246 0.6430886467 2.755064885e-39
-0.3300627024 -2.162193538 2.007755236 -0.1544373592 -0.6941494528 0.7030687301 2.755064885e-39
-0.5987622207 -2.033213761 2.090706099 -0.1971280553 -0.6635964583 0.7216510724 1.836709923e-39
-0.4906847316 -1.809112501 2.271989721 0.1343041129 0.6194950034 -0.7734263676 6.428484731e-40
-0.2685463198 -1.678694003 2.410316332 0.08749498687 0.547375042 -0.8323011418 5.234623281e-39
-0.2652063251 -1.450846528 2.552635269 -0.08475111744 -0.4791765516 0.8736172391 5.234623281e-39
-0.4996796073 -1.358392664 2.577954133 -0.1636699083 -0.4345868257 0.8856333621 2.479558396e-39
-0.6287772831 -0.7850984781 2.770443346 0.2849048989 0.319004152 -0.9039167824 3.030571373e-39
-0.3351273747 -0.8003866557 2.822013778 -0.0891133686 -0.3088551698 0.9469251774 2.663229389e-39
-0.2764869341 -0.8162488344 2.835182306 -0.05771246375 -0.3107403977 0.948741101 2.112216412e-39
-0.4905336908 -0.5187766711 2.861204718 0.2165544157 0.2299594445 -0.9488007372 3.673419846e-40
-0.7918269973 -0.1726857138 2.908452481 -0.3070152385 -0.08092353744 0.9482578892 6.612155723e-39
-0.6878838975 -0.2355164938 2.924042703 0.2758287793 0.1454807148 -0.9501335938 3.765255342e-39
-0.3310735984 0.1323059954 3.042488491 -0.1535140525 -0.00766224912 0.9881167571 2.846900381e-39
-0.3749896951 0.3309442474 2.993478939 -0.1330076391 0.1079915841 0.9852140812 3.765255342e-39
-0.4428077492 0.7429920711 2.871347983 0.1199512296 -0.3055486756 -0.9445907629 2.112216412e-39
-0.6765217345 0.9863674021 2.75214824 0.2203993125 -0.4120005183 -0.8841265272 8.265194654e-40
-0.2746855567 1.298460261 2.632402844 -0.04665480186 0.4250369595 0.9039728494 2.663229389e-39
-0.3229314524 1.152042031 2.676320415 -0.02933593995 0.408349556 0.9123541213 2.663229389e-39
-0.6806191051 1.279535233 2.614145517 -0.1950144391 0.4388660546 0.8771350835 1.102025954e-39
-0.2935666256 1.696793375 2.407046657 0.0707355608 -0.5801388163 -0.8114403455 7.346839693e-40
-0.4878402723 1.937678977 2.217468283 0.1580846613 -0.6156978056 -0.7719620794 1.469367939e-39
-0.4213352733 1.996325634 2.194021081 0.1385359153 -0.6468496955 -0.7499288444 1.469367939e-39
-0.3305974175 2.011042731 2.168214431 -0.09998001379 0.668666905 0.7368097224 7.346839693e-40
-0.1268924954 2.336215135 1.855160143 -0.05259444891 0.7952260998 0.6040275441 1.102025954e-39
-0.316792983 2.338894133 1.819782286 -0.1182521144 0.8038815763 0.5829158162 9.183549616e-41
-0.2323066789 2.463872132 1.624468949 -0.09482315662 0.8494991992 0.5189987278 5.877471754e-39
-0.1570001208 2.706532888 1.249573232 0.08286131488 -0.9199073997 -0.3832810698 5.142787785e-39
-0.2204781933 2.806780857 0.9891037491 -0.0917244159 0.9504086196 0.2971701318 4.867281296e-39
-0.003793369168 2.858199421 0.8451915743 -0.03510800879 0.9717069326 0.2335659756 3.122406869e-39
0.01489944744 2.82675591 0.9182946297 -0.02101019497 0.9653001205 0.2602964636 3.122406869e-39
-0.1544624065 2.914824041 0.5546036496 -0.05220579952 0.9865482674 0.1549098787 3.122406869e-39
-0.04607784822 2.941405077 0.5291445857 -0.0320201686 0.9863793619 0.1613395898 3.122406869e-39
0.07065522449 2.982418042 0.2069281537 -0.02912826591 -0.9983932378 -0.04860541909 3.122406869e-39
0.1482397397 2.97803158 -0.1065111721 0.05957411224 0.9974453769 -0.03941630669 3.122406869e-39
0.2347769141 -2.969707702 0.2509760508 0.07094705629 -0.9929591338 0.09486134011 1.010190458e-39
0.1956444862 -2.964522066 0.3552895093 -0.06439027621 0.991962254 -0.108925566 1.010190458e-39
-0.04425287133 -2.950233622 0.4148773289 -0.02342517257 -0.9931803167 0.1142108568 5.510129769e-40
-0.02211448553 -2.88479225 0.7951449325 -0.01431343114 0.9778853564 -0.2086512769 5.510129769e-40
-0.3884916416 -2.849421762 0.8043682498 -0.1222502651 -0.9710865959 0.2050504719 5.050952289e-39
-0.2735580196 -2.859615088 0.8131418576 -0.09223601133 -0.9744609622 0.2047397162 5.050952289e-39
-0.1350942449 -2.828145638 1.009231157 0.02535714523 0.962544954 -0.2699337451 5.050952289e-39
-0.5999685897 -2.697783559 1.247539141 -0.1845365563 -0.9142574073 0.3606655689 3.214242366e-39
-0.3205816059 -2.602534616 1.567984518 -0.1170026029 -0.861130819 0.494736398 3.673419846e-40
-0.3819979185 -2.532073446 1.618107355 0.1335742546 0.8255379883 -0.548310996 3.673419846e-40
-0.2661214234 -2.172646773 2.023751694 0.1396233433 0.6864927508 -0.713605651 1.285696946e-39
-0.6344642788 -2.139222515 1.981399013 0.1731512846 0.7212352204 -0.670699925 3.489748854e-39
-0.606183011 -1.902767737 2.228070832 0.1626801327 0.637446502 -0.7531249109 9.09171412e-39
-0.4130055912 -1.661000134 2.42494114 -0.09737113787 -0.5489959786 0.830133891 2.479558396e-39
-0.696962104 -1.63585978 2.38083581 0.1929475279 0.5391703522 -0.8197966716 2.571393892e-39
-0.4608681695 -1.349430136 2.5869529 0.1306594024 0.4385767939 -0.8891448231 2.479558396e-39
-0.5778372408 -1.192177479 2.64831348 -0.1795301147 -0.4010796273 0.8982783925 2.479558396e-39
-0.7207269366 -0.9062876573 2.731775455 0.239575051 0.3375705911 -0.9103020877 3.397913358e-39
-0.4350373442 -0.6530281202 2.838392773 0.1738163956 0.2543176204 -0.9513729072 2.663229389e-39
-0.7392825345 -0.4856365325 2.822173022 0.2720891782 0.2087856113 -0.9393487359 3.397913358e-39
-0.5986880345 -0.6173578838 2.828351377 0.2439996257 0.2300469512 -0.9420947845 3.030571373e-39
-0.7603829815 -0.3087951322 2.87806859 0.282823787 0.179930008 -0.9421443083 3.030571373e-39
-0.5558616689 -0.1176904785 2.991338945 -0.2264461985 -0.09128913036 0.9697362599 3.765255342e-39
-0.8715047927 0.3275123826 2.881531791 -0.3615286688 0.1068483427 0.9262183616 3.214242366e-39
-0.7051597083 0.5019785184 2.886234322 -0.2900277746 0.1683588197 0.9420929879 8.265194654e-40
-0.5691008502 0.597690096 2.890945067 -0.1791494487 0.2574719109 0.9495334065 8.265194654e-40
-0.5440580974 0.7162171037 2.865158903 0.1492649437 -0.2987360803 -0.9425904365 8.265194654e-40
-0.7852460095 1.242767973 2.598574165 0.2136511107 -0.4586578054 -0.8625463584 7.346839693e-40
-0.8005584239 1.334073304 2.538281756 -0.2521896312 0.4644669465 0.8489233449 5.601965266e-39
-0.4328321313 1.612177897 2.449541931 0.1395495445 -0.5612162656 -0.8158199727 7.346839693e-40
-0.7311135642 1.464856625 2.499849561 0.2355955402 -0.4705992872 -0.8503123264 3.948926335e-39
-0.7256333837 2.027149022 2.094091753 0.2712355009 -0.6728498307 -0.6882618749 3.397913358e-39
-0.7676941669 1.934320209 2.155253935 0.2738885829 -0.6478733538 -0.7108059943 3.214242366e-39
-0.6473842082 2.190603105 1.964591703 0.2461427092 -0.7367261049 -0.6298002962 5.510129769e-40
-0.3925788324 2.309396745 1.844082714 -0.1311016298 0.7963671877 0.5904334552 5.877471754e-39
-0.3586786824 2.462668844 1.654725302 0.137437046 -0.8392361066 -0.5261119803 5.510129769e-40
-0.4423140443 2.535497192 1.508985259 -0.1548707824 0.8582380092 0.4893286833 6.795826716e-39
-0.444113411 2.536240438 1.522593105 -0.1779602987 0.8598905564 0.478454139 4.132597327e-39
-0.2057752898 2.648183525 1.349375432 -0.09321849235 0.900319979 0.4251285077 3.58158435e-39
-0.1654380538 2.848764307 0.8538946531 -0.05712815288 0.9693857695 0.238804531 3.122406869e-39
-0.3642082163 2.835117108 0.8017787556 -0.1293709915 0.9630001958 0.2364186316 4.867281296e-39
-0.1939615313 2.941023276 0.3952946105 -0.06998136251 0.9898486673 0.1237021615 3.122406869e-39
0.05870363656 2.931360076 0.5845245885 0.008819996847 0.9852112166 0.1711171129 3.122406869e-39
-0.03328113437 2.989545096 -0.02853043577 0.01198306998 0.999857432 -0.01189629206 3.122406869e-39
0.1666492117 2.967421084 -0.2345477454 -0.06722151673 -0.9944897855 0.08044460354 3.122406869e-39
0.1252539197 -2.996560366 -0.05534802812 -0.03421883344 0.9994143459 -0.0001915645955 1.010190458e-39
-0.203261447 -2.977612268 0.108720656 -0.0644829423 -0.9971408065 0.03939748968 5.510129769e-40
-0.2675716145 -2.960001972 0.2506019762 -0.0878385204 -0.9939082592 0.06656400365 2.3877229e-39
-0.2717150785 -2.932997607 0.4121542822 -0.07903638554 -0.9904563017 0.1129139679 2.3877229e-39
-0.3231104995 -2.90299274 0.6153295716 -0.09396010147 -0.9840733108 0.1509013529 5.050952289e-39
-0.4871378639 -2.720340597 1.237120612 -0.1575376766 -0.9180837871 0.3637362235 3.214242366e-39
-0.2880767333 -2.775255872 1.11731728 -0.08283782123 -0.9452990291 0.3155117127 5.050952289e-39
-0.5625858821 -2.687991375 1.254477585 -0.1819004638 -0.9115381058 0.3687960181 3.214242366e-39
-0.4560611273 -2.551186377 1.571746835 -0.1430448935 -0.8430314038 0.5184941762 2.846900381e-39
-0.6288722451 -2.362172888 1.761680061 0.1877745733 0.7660894621 -0.6146931313 2.846900381e-39
-0.407528404 -2.306274185 1.860822114 -0.1553548988 -0.7460113018 0.6475584862 1.836709923e-39
-0.7157274217 -2.146466668 1.947837484 0.1822755634 0.7122979876 -0.6777958364 3.489748854e-39
-0.8493666518 -1.962561654 2.106144935 0.2593472856 0.6448988097 -0.7189189876 3.489748854e-39
-0.8648128195 -1.926611861 2.118519134 0.2892382938 0.6094295959 -0.7381983318 3.489748854e-39
-0.5722934788 -1.620919588 2.431741555 0.1708679587 0.5209888715 -0.8362862766 2.571393892e-39
-1.078858288 -1.434030981 2.381080581 -0.3486612396 -0.4669601637 0.8126398621 5.142787785e-39
-0.8340604528 -1.13712699 2.598515565 0.2604846513 0.3641827215 -0.894158091 3.489748854e-39
-0.9809576675 -1.290346674 2.470173859 0.303372335 0.3934793221 -0.8678359577 3.306077862e-39
-0.9588534186 -0.6749302067 2.698791995 -0.3509544844 -0.2185837093 0.9105229881 1.469367939e-39
-0.930053144 -0.5855637676 2.737956985 -0.3314775944 -0.2167083064 0.9182375043 3.489748854e-39
-1.001167782 -0.4620202452 2.700251856 0.3862851321 0.2117802154 -0.8977376772 4.7754458e-39
-0.8837917744 -0.07409729331 2.851831931 0.3698247924 0.1182467342 -0.9215461642 6.612155723e-39
-0.773449819 0.24500015 2.907344791 0.317128318 -0.01459261104 -0.9482703653 3.765255342e-39
-0.7299027114 0.3729299851 2.901014522 0.2954490515 -0.1148940481 -0.9484245967 2.112216412e-39
-0.7779048475 0.6546691311 2.849837061 -0.2726201013 0.252940931 0.9282775263 8.265194654e-40
-0.7978978006 0.6175228362 2.845979515 0.3061753418 -0.2180004265 -0.9266781934 8.265194654e-40
-0.8694740711 0.9354050977 2.710466268 0.2749538416 -0.3524181069 -0.8945400287 5.601965266e-39
-0.6400121766 0.9275841002 2.789149937 -0.1920742187 0.3858680398 0.9023377141 8.265194654e-40
-0.6692548992 1.351699782 2.579285559 -0.1815843236 0.4491105236 0.874829624 1.102025954e-39
-0.8097002581 1.542001896 2.442416677 0.2577655157 -0.5081327925 -0.8218016817 3.214242366e-39
-0.5428440282 1.500598958 2.514641106 0.1845712851 -0.4893416361 -0.8523369075 7.346839693e-40
-0.6287358256 1.866022711 2.258236735 0.219156705 -0.620042177 -0.7533379304 3.122406869e-39
-0.7983243483 2.015979326 2.040916862 0.3134821164 -0.6878193387 -0.6547010921 5.877471754e-39
-0.8416709456 2.186348957 1.856226941 -0.3146057259 0.7282247242 0.6088612225 5.510129769e-40
-0.4524657554 2.329583083 1.834301579 -0.169263166 0.7942835672 0.5834925839 5.510129769e-40
-0.7549689952 2.381030151 1.668103188 0.2514214063 -0.8118913333 -0.526896327 4.132597327e-39
-0.3857346522 2.564282701 1.495925276 -0.1521560394 0.869421983 0.4700573957 1.102025954e-39
-0.5528906941 2.47930272 1.556197257 -0.2083208234 0.8436746545 0.4947883506 4.132597327e-39
-0.4975337408 2.722988901 1.010771073 -0.2033425451 0.9236312067 0.3248956808 9.183549616e-40
-0.5532053399 2.811891845 0.8100634384 -0.1758972663 0.9511891679 0.2535731031 4.867281296e-39
-0.1164058605 2.889180819 0.7232572466 -0.05305670385 0.9771040982 0.2060402081 3.122406869e-39
-0.1084926759 2.862402789 0.7947981807 -0.05455358697 0.9719542022 0.2287551859 3.122406869e-39
0.09687811315 2.928088437 0.5453345341 0.01365808729 0.9889932683 0.1473287887 3.122406869e-39
0.07970436594 2.96982885 0.3041979 -0.02044394707 -0.9960643485 -0.08624302099 3.122406869e-39
-0.201168824 2.963946838 0.2184214301 -0.05850724649 0.995438995 0.07535323107 3.122406869e-39
-0.2167364442 -2.968932246 0.2257025037 -0.06702918012 -0.9955024909 0.06694684206 5.510129769e-40
-0.2148219628 -2.943914472 0.4083244883 -0.06209349867 -0.9918620915 0.1111484988 5.510129769e-40
0.06657194125 -2.96676398 0.3037825343 -0.01902086321 0.9959863141 -0.08746124177 2.295887404e-39
-0.1337693237 -2.934078808 0.485319475 -0.04381232224 -0.9901654491 0.13286408 5.510129769e-40
-0.5215090011 -2.831723236 0.7677350271 -0.1471173258 -0.9672155651 0.2070037271 5.050952289e-39
-0.3204897715 -2.781796605 1.126344451 -0.08950056354 -0.9450187136 0.3145302531 5.050952289e-39
-0.5048011654 -2.815719178 0.9074018437 -0.1607294421 -0.963393717 0.2145660563 5.050952289e-39
-0.680940364 -2.709157567 1.165916011 -0.2251609442 -0.9187555257 0.3243313633 5.050952289e-39
-0.7869133695 -2.520398766 1.487559145 -0.2887773078 -0.8322408738 0.4732682056 2.3877229e-39
-0.6274382775 -2.24990602 1.8731275 0.2098135137 0.7398973147 -0.6391637139 2.846900381e-39
-0.6744671689 -2.348434833 1.773265781 0.2103466849 0.7623918292 -0.611974649 2.846900381e-39
-1.004816854 -2.136619163 1.89396429 -0.3244437085 -0.6907179343 0.6462546056 2.479558396e-39
-0.8415005783 -1.978966349 2.082255445 0.2845914782 0.6201491086 -0.7310422516 3.489748854e-39
-0.7414058482 -1.693776178 2.335584853 0.219977108 0.5439394718 -0.8097776997 2.571393892e-39
-0.8604916 -1.735835245 2.271936411 -0.290926133 -0.5333525814 0.7942902549 8.265194654e-40
-0.9604720399 -1.546972033 2.346834045 -0.3214351364 -0.5125136457 0.7962469567 4.591774808e-40
-0.8215222848 -1.208580274 2.575135811 0.2651858424 0.3810171778 -0.8857213891 3.489748854e-39
-0.9809003857 -1.078267347 2.558721045 0.3135075478 0.3581676535 -0.8794480937 8.265194654e-40
-1.103942563 -0.8283952757 2.580412689 0.3895945645 0.2305875893 -0.8916532056 5.142787785e-39
-1.309764062 -0.4816685903 2.575047859 0.4605840685 0.2130870156 -0.8616590043 7.346839693e-40
-0.987152667 -0.3361713744 2.746927432 0.3713739599 0.2123386778 -0.9038770203 2.295887404e-39
-1.069366767 0.01544984219 2.784443842 0.392007658 0.01323064299 -0.9198668089 5.510129769e-40
-1.066520659 0.106221917 2.79344999 0.3787995059 -0.02250674926 -0.9252050479 5.510129769e-40
-1.249630565 0.1783693366 2.703972842 0.4465744711 -0.05147964158 -0.893264288 2.3877229e-39
-1.147639098 0.3633389389 2.73569674 0.4086343369 -0.1183542225 -0.9049918545 9.183549616e-41
-1.202627898 0.7727548222 2.615208762 -0.4352877395 0.2091367875 0.8756633988 9.183549616e-41
-1.021520666 0.6617635034 2.762134923 0.3843634638 -0.2143403063 -0.8979548768 9.183549616e-41
-1.260701672 1.113126398 2.477415831 -0.4511615306 0.3721505691 0.8111456264 3.214242366e-39
-0.8136266124 1.190179527 2.620908704 0.2324802969 -0.463378804 -0.8551216262 7.346839693e-40
-1.085153475 1.466485983 2.375803363 0.3607994266 -0.5020611496 -0.7859760657 3.214242366e-39
-1.084751407 1.586725495 2.311173058 0.3492028839 -0.5284172951 -0.7738426895 4.867281296e-39
-1.002695285 1.895626736 2.030020392 -0.374626004 0.6531208806 0.6580945771 2.755064885e-40
-1.057822792 2.119079069 1.803170471 0.3994226409 -0.7090873121 -0.5810823847 5.234623281e-39
-0.7601712001 2.063890042 2.013442008 -0.3093297733 0.6835579923 0.6611078297 5.877471754e-39
-0.6056929582 2.170928479 1.987692776 0.2199221712 -0.7217001357 -0.6563407292 5.877471754e-39
-0.7964703055 2.352075202 1.645406604 0.2912345406 -0.7948772772 -0.5323087042 5.234623281e-39
-0.4316060136 2.608499519 1.424284954 -0.1651317988 0.8896374936 0.4257659204 3.58158435e-39
-0.4555810514 2.63382575 1.341313358 -0.1690051442 0.8934376023 0.4161808647 2.204051908e-39
-0.2528904098 2.773513109 1.055929476 -0.1011480592 0.944557285 0.3123789453 5.601965266e-39
-0.472046606 2.816922352 0.8688020109 -0.1480929632 0.9554478649 0.2553191175 4.867281296e-39
-0.4600197931 2.808759313 0.8265226141 -0.1484592914 0.9559457926 0.2532340425 4.867281296e-39
-0.2256354683 2.892869957 0.6804441805 -0.07748211949 0.9769557188 0.1988819868 3.122406869e-39
-0.003199977493 2.949314963 0.3926123409 -0.001334758446 0.9920399605 0.1259163819 3.122406869e-39
0.07929944017 2.983188168 0.1850047651 -0.03171035433 -0.9984034885 -0.04674320824 3.122406869e-39
0.1852987311 2.979315892 -0.05306538833 0.07127819124 0.9970578505 -0.02819684788 3.122406869e-39
-0.09751983993 -2.989926106 0.02240646306 -0.03383727053 -0.999098459 0.025638025 2.204051908e-39
-0.01362169423 -2.992268532 0.05007689445 -0.0009509693603 0.9994073376 -0.03441030622 2.295887404e-39
-0.00245945011 -2.925734622 0.5751499963 -0.01045566133 -0.9864255213 0.1638760814 5.510129769e-40
-0.4250121149 -2.893771214 0.590329998 -0.1104842428 -0.9830941863 0.1460104547 5.050952289e-39
-0.1919306084 -2.836105287 0.9107844925 -0.0620354149 -0.97018242 0.2343025378 5.050952289e-39
-0.4515731039 -2.823371093 0.961387738 -0.133181862 -0.9610038672 0.2423513128 5.050952289e-39
-0.7774254108 -2.72710364 1.000955851 -0.2519984361 -0.9298184129 0.2682060911 5.050952289e-39
-0.7286379209 -2.625401519 1.321093932 0.2596183635 0.8811693245 -0.395144185 2.3877229e-39
-0.8665921148 -2.603876233 1.245005998 0.3140978127 0.8762932069 -0.3653118936 3.397913358e-39
-0.9833830912 -2.435582671 1.507110699 0.3691858462 0.7990831052 -0.4745187055 5.234623281e-39
-0.6907488628 -2.47704885 1.608152733 0.2474278372 0.7847888703 -0.5682304942 2.479558396e-39
-0.7426321086 -2.225538103 1.871023188 0.2238011966 0.7266665414 -0.6495142509 2.846900381e-39
-0.7982309396 -1.834156343 2.257875358 -0.2269143558 -0.6151488111 0.7550508693 8.265194654e-40
-1.183792576 -1.622913069 2.214625183 0.3476960192 0.5274628328 -0.7751712316 2.479558396e-39
-0.8841869344 -1.821526346 2.219638077 0.2949808769 0.5905734776 -0.7511386355 1.836709923e-39
-1.165925003 -1.516360553 2.282845225 0.3579739164 0.473374327 -0.8048424826 2.479558396e-39
-1.33934577 -1.357696991 2.31315264 -0.3777694323 -0.4266789288 0.8217270519 2.846900381e-39
-1.204894381 -1.190175195 2.4226604 0.3507717246 0.3608846842 -0.8641304542 5.142787785e-39
-1.465575522 -0.6303496828 2.458774326 0.4487882051 0.213347644 -0.8677971709 7.346839693e-40
-1.31141997 -0.8074153893 2.495751609 0.4450993139 0.2172657753 -0.8687244579 7.346839693e-40
-1.438196407 -0.6437859933 2.464686683 -0.4489399845 -0.2093473036 0.8686924638 7.346839693e-40
-1.390351217 -0.1541515782 2.616012477 0.4906102337 0.1044763273 -0.8650932294 7.346839693e-40
-1.388091681 0.04071569246 2.636679737 -0.5108345956 0.001082821488 0.8596783372 1.836709923e-40
-1.415427825 -0.002175852629 2.615033493 0.5184305526 0.02756177796 -0.8546754416 9.183549616e-41
-1.17310372 0.6157137314 2.63995289 0.4568583651 -0.1775627537 -0.8716374835 9.183549616e-41
-1.15760052 0.657579987 2.674292806 0.4019692362 -0.2087295022 -0.8915451352 9.183549616e-41
-1.441523465 0.7646712988 2.49730493 -0.493431777 0.2730543907 0.8258125582 3.857090839e-39
-1.422070093 1.016706019 2.427442443 -0.5206732695 0.344769299 0.7810463987 1.010190458e-39
-1.314086989 1.315045368 2.320873431 0.503750029 -0.4707016129 -0.7243451525 7.346839693e-40
-1.012259383 1.358871355 2.474781767 -0.3146087761 0.4692903527 0.825098711 3.214242366e-39
-1.279219555 1.637174108 2.116425818 -0.4701136376 0.5536599445 0.6873527723 4.224432823e-39
-1.205112323 1.827131946 2.013809422 -0.4081444144 0.6475077715 0.6435462865 5.510129769e-40
-1.120856431 2.115928974 1.758215464 0.4119606101 -0.7101860491 -0.5708977417 5.234623281e-39
-0.9120054632 2.177164276 1.808310142 0.3347712927 -0.7244678747 -0.6025566198 5.234623281e-39
-0.9032514061 2.100100423 1.911394962 -0.3316912643 0.7019254312 0.6303027798 5.510129769e-40
-0.9676460038 2.343315663 1.580715548 0.3418633349 -0.8043488784 -0.4859550824 3.58158435e-39
-0.4703127989 2.493311639 1.573969638 -0.1862532191 0.8424022371 0.5056364398 5.510129769e-40
-0.5398599909 2.647439409 1.253238155 -0.1936921614 0.9003890563 0.3895932416 5.142787785e-39
-0.3477312609 2.765213153 1.058150785 -0.1219237557 0.9396684278 0.3196214068 4.867281296e-39
-0.3915001878 2.85374251 0.759045734 -0.1026077181 0.9673744904 0.2316425079 3.122406869e-39
-0.4259772905 2.796983877 0.936624101 -0.1464112142 0.9475947224 0.2839506972 4.867281296e-39
-0.3212564926 2.912429261 0.518864784 -0.1033591739 0.9847978265 0.1396070271 3.122406869e-39
-0.06547107421 2.915815947 0.6207126422 -0.03859152187 0.9814156345 0.1879735269 3.122406869e-39
-0.1058531019 2.983847666 0.06567665089 0.02072560956 -0.9995193109 -0.02305636924 3.122406869e-39
-0.1186889899 2.98370223 0.1102843502 -0.02436836905 0.9992448883 0.03026278016 3.122406869e-39
0.2297030255 -2.991257468 0.02422287663 0.06454677785 -0.9978791207 0.008424604069 1.010190458e-39
-0.1388605742 -2.953701697 0.374105271 -0.04867462123 -0.9927109091 0.1102534907 5.510129769e-40
-0.3374685842 -2.944408772 0.3363431071 -0.1007681515 -0.9905043049 0.09352540664 2.3877229e-39
-0.1778938239 -2.90504122 0.6901897978 -0.04319347089 -0.9842134548 0.1716339113 3.489748854e-39
-0.5986713703 -2.880100243 0.5479580658 -0.1498721426 -0.9780747227 0.1445966033 5.050952289e-39
-0.3676393824 -2.823677732 0.9810797817 -0.1195186179 -0.9624003504 0.2439279925 5.050952289e-39
-0.4073355751 -2.80867689 1.003320712 -0.1286598245 -0.9547485379 0.2681452571 5.050952289e-39
-0.6600960187 -2.737549886 1.10383903 -0.2130861241 -0.9275128653 0.3071061518 5.050952289e-39
-0.9973690917 -2.464553762 1.42253211 0.3780539248 0.8161810705 -0.4369481549 9.183549616e-40
-0.8346237797 -2.50175552 1.491566743 -0.3141215109 -0.8255293317 0.4688592527 2.3877229e-39
-0.9932526993 -2.26696877 1.726005494 0.3515525458 0.7327102972 -0.5827061249 1.928545419e-39
-1.108213512 -2.012953029 1.955756433 0.3481632798 0.6455507519 -0.679740066 3.948926335e-39
-1.189086204 -2.044595361 1.880917869 -0.3667219094 -0.6764330722 0.6387122513 3.397913358e-39
-1.258358139 -1.833180498 2.024575598 0.3829833838 0.6081735452 -0.6953047294 3.397913358e-39
-1.117159141 -1.819287762 2.095711442 0.3378501106 0.5901333816 -0.7332120394 2.479558396e-39
-1.377211091 -1.362870578 2.28272902 -0.3900727956 -0.4130773079 0.8229279141 2.846900381e-39
-1.338613255 -1.091300983 2.400367824 0.4164187199 0.2937912385 -0.860396512 9.183549616e-41
-1.358079572 -1.039655141 2.402775898 -0.4215594432 -0.2779827334 0.8631414923 7.346839693e-40
-1.191674766 -1.010328366 2.499498109 -0.3821616358 -0.323522164 0.865613016 5.142787785e-39
-1.358988029 -0.4331167635 2.561303126 0.4664207477 0.1996666356 -0.8617336716 7.346839693e-40
-1.473986564 -0.2338523731 2.537631531 -0.5025772136 -0.146958503 0.8519503171 7.346839693e-40
-1.526545615 -0.08363152096 2.528733186 0.4958792577 0.05755010108 -0.8664823989 7.346839693e-40
-1.492942003 0.1841427101 2.566881307 0.5330418048 -0.02193221719 -0.8458045946 5.693800762e-39
-1.403324113 0.4174652161 2.555169997 -0.4760964835 0.1039751961 0.8732246544 1.836709923e-40
-1.220389219 0.3511616931 2.678556583 0.4450148192 -0.115655215 -0.8880234693 9.183549616e-41
-1.573031483 0.6219350961 2.431241786 -0.5520452589 0.2090438015 0.8071844406 3.673419846e-40
-1.250018858 1.01761577 2.53395021 0.4428307005 -0.3530157126 -0.8241849777 3.214242366e-39
-1.359090296 1.023376826 2.465748454 -0.5121953133 0.3380779083 0.7895310564 1.010190458e-39
-1.402999828 1.035871488 2.430717397 -0.5135737162 0.3500011343 0.7834163925 1.010190458e-39
-1.092787972 1.483198347 2.34215056 -0.4013929895 0.5193274461 0.7544419605 4.867281296e-39
-1.367541943 1.695135233 2.018186441 -0.4998742198 0.5766858085 0.6461882408 5.510129769e-40
-1.279943526 1.813565695 1.985919768 0.4558126281 -0.6302232268 -0.6285328411 5.510129769e-40
-1.286041096 1.942617793 1.826745725 0.4631078934 -0.6620278391 -0.5892794069 7.714181677e-39
-1.117466569 2.021137601 1.878010873 -0.4040595004 0.6848744479 0.6063686261 5.234623281e-39
-0.9921033444 2.213608972 1.710612152 0.3819790194 -0.7329885195 -0.5628675324 5.234623281e-39
-1.071937489 2.443132831 1.26658072 0.3808401781 -0.8375498374 -0.3917537857 2.479558396e-39
-0.86613369 2.45892275 1.462850519 0.3106726068 -0.8262577669 -0.4698729977 3.58158435e-39
-0.7680297607 2.620998379 1.116288865 -0.2816237393 0.8905768084 0.3571568534 9.183549616e-40
-0.5925935502 2.783703889 0.8903313163 -0.2028485137 0.9417892077 0.2681148425 4.867281296e-39
-0.5618878167 2.777690681 0.872634787 -0.1876090727 0.9425528605 0.2763999655 4.867281296e-39
-0.1795271951 2.816863031 0.9322148803 -0.07006837756 0.9584987382 0.2763522957 4.867281296e-39
-0.4010193653 2.893677153 0.5514253451 -0.1093461821 0.9819790381 0.1541446761 3.122406869e-39
-0.1422579099 2.939614478 0.4114999601 -0.05566542563 0.9902209734 0.1279210075 3.122406869e-39
0.08704390977 2.984527313 -0.001089165875 -0.04432734359 -0.9990165084 -0.00104997858 3.122406869e-39
0.09935444703 2.981090455 0.2088447168 -0.03223676451 -0.9982291385 -0.04999378093 3.122406869e-39
0.1426766441 -2.989002029 -0.1744355395 -0.05129621292 0.9978372135 0.04110466932 2.295887404e-39
-0.331648483 -2.966363675 -0.03236404902 0.1090838584 0.9940141891 -0.006041826433 2.3877229e-39
-0.1265370959 -2.933970168 0.5206805327 -0.03915321336 -0.990839556 0.1292439557 5.510129769e-40
-0.4673970265 -2.927252658 0.3379275683 -0.1283769538 -0.9872360765 0.09425649522 3.489748854e-39
-0.2699418118 -2.921590398 0.4866998038 -0.08594539273 -0.9883404703 0.125684145 3.489748854e-39
-0.769585216 -2.820212318 0.7060142065 -0.211150294 -0.9567897623 0.1999222451 5.050952289e-39
-0.6628240728 -2.704637739 1.19507962 -0.2146753677 -0.9166370311 0.3371810192 5.050952289e-39
-0.8920643547 -2.651091566 1.094302903 0.2987559018 0.8984301332 -0.3218201468 5.050952289e-39
-1.086326526 -2.485841134 1.303125115 -0.4069751301 -0.8207673231 0.4008893175 3.030571373e-39
-0.9700905557 -2.462379155 1.452424331 0.3728851836 0.8157464131 -0.4421701362 2.3877229e-39
-1.313015712 -2.274463537 1.472296692 0.4523562522 0.7648305971 -0.4587024949 1.653038931e-39
-1.044244726 -2.234115088 1.764691231 0.3424257012 0.7316980134 -0.5893748012 2.3877229e-39
-1.479057587 -2.003399034 1.672717051 0.4985832718 0.6907469864 -0.5237206524 1.653038931e-39
-1.501784561 -1.632968916 2.070592601 -0.4549332343 -0.5430897503 0.7057544017 4.040761831e-39
-1.595079191 -1.617292431 1.999955802 -0.5011672511 -0.5389310855 0.6770411151 4.040761831e-39
-1.196493509 -1.614519506 2.219662834 0.3608758584 0.5429984112 -0.7582356759 2.479558396e-39
-1.440806128 -1.526681571 2.18790596 -0.4224167093 -0.5268785451 0.7375385566 3.397913358e-39
-1.614074189 -0.8566277222 2.320896924 -0.4739846162 -0.2338801859 0.8489043776 2.295887404e-39
-1.474214684 -0.676444299 2.439496137 -0.4512220414 -0.2128651489 0.8666528127 7.346839693e-40
-1.587037586 -0.6029280676 2.41385365 -0.4446390696 -0.2108030305 0.870550504 7.346839693e-40
-1.843589572 -0.2624423433 2.314557741 -0.5704327488 -0.1122474741 0.8136381159 2.755064885e-40
-1.805003578 -0.06364892598 2.371827515 0.5745948392 0.007561386963 -0.8184030769 4.132597327e-39
-1.765709614 -0.1413523466 2.374325831 0.5587194035 0.09812002602 -0.8235320811 2.755064885e-39
-1.654453121 -0.002825589565 2.484104518 -0.5436884539 -0.007643873055 0.8392523079 2.755064885e-39
-1.680796144 0.6560950134 2.355195041 0.5806675612 -0.2133054096 -0.7857009518 3.673419846e-40
-1.481390202 0.869034827 2.433967917 0.518725106 -0.2711567463 -0.8108010134 3.673419846e-40
-1.470478458 0.949345103 2.421699255 -0.5231509292 0.3035311688 0.7963554074 3.673419846e-40
-1.488247078 1.118431009 2.312455019 -0.5481172743 0.3937450167 0.7379243291 7.346839693e-40
-1.357066652 1.454874753 2.192579355 -0.4918772851 0.4925317409 0.7179618518 7.346839693e-40
-1.341524465 1.644695993 2.07037558 -0.4846683079 0.5511077856 0.6792472598 4.867281296e-39
-1.509911342 1.45186748 2.092346356 -0.5160833456 0.4848181258 0.7061227693 9.183549616e-40
-1.439032205 1.886004905 1.733905605 -0.505468932 0.637183206 0.581806429 1.744874427e-39
-1.333385823 2.012435533 1.686323612 -0.4655913431 0.6820657367 0.5639246687 1.744874427e-39
-0.9993193997 1.971054279 1.983864055 0.358765695 -0.6799344628 -0.6395125506 5.510129769e-40
-1.11163234 2.280710319 1.527026921 0.4179134912 -0.7584813762 -0.5000543129 2.295887404e-39
-1.280647925 2.305812034 1.343251128 -0.4393346646 0.7913026527 0.4252354222 1.561203435e-39
-0.819865713 2.556986594 1.241969677 0.3019850047 -0.8708339171 -0.3878831599 5.050952289e-39
-0.8046793593 2.598352462 1.176063473 0.299311752 -0.8833083624 -0.36080301 5.142787785e-39
-0.5930309851 2.673347403 1.124302069 -0.2163583868 0.9121701351 0.3480440965 9.183549616e-40
-0.3542326732 2.890272342 0.6544771927 -0.1053513133 0.9770726387 0.1850139438 3.122406869e-39
-0.6465615005 2.839846127 0.6098871507 -0.1950243111 0.9621337694 0.1904314259 3.122406869e-39
-0.1329996789 2.925579597 0.52797788 -0.05110600085 0.9867186825 0.1541895533 3.122406869e-39
-0.09267731386 2.933480503 0.5276520353 -0.034376601 0.9863538462 0.1610103705 3.122406869e-39
-0.3550827382 2.9323265 0.3807868076 -0.1076178559 0.9874607093 0.1154978123 3.122406869e-39
0.1330480804 2.982437015 -0.04726675505 -0.05588169432 -0.9981981684 0.02185526902 3.122406869e-39
0.1627370251 -2.988791754 0.05974200195 0.04340146253 -0.9985071195 0.03316391799 1.010190458e-39
-0.3356884312 -2.95637147 0.1824096836 0.08918038059 0.9940270471 -0.06290539975 2.3877229e-39
-0.4907744513 -2.902331323 0.5138440968 -0.1341233543 -0.9817028591 0.1351681262 5.050952289e-39
-0.1690455184 -2.891646673 0.6818910087 -0.05512553873 -0.9844480939 0.1668026543 3.489748854e-39
-0.7135552293 -2.785422686 0.8102806164 -0.2061297293 -0.9506375705 0.2319455634 5.050952289e-39
-0.8043757128 -2.822217763 0.5454494088 0.2328765216 0.9557475619 -0.1797640778 5.050952289e-39
-0.8138764248 -2.775609959 0.8443215757 -0.2433403339 -0.9432102731 0.2261412448 5.050952289e-39
-1.080075936 -2.616607184 1.006089867 0.3579983535 0.8852975159 -0.2967919932 9.183549616e-40
-0.9510659946 -2.460009566 1.502657305 -0.3428542268 -0.816685456 0.4641937581 5.234623281e-39
-0.924328104 -2.406805836 1.592481028 -0.3223587082 -0.7966912221 0.5112415865 2.3877229e-39
-1.246435031 -2.280931631 1.509530921 0.4622325935 0.7682020755 -0.4429521426 1.653038931e-39
-1.521769842 -1.91418155 1.758186492 0.5013510344 0.6607434599 -0.5586279804 1.653038931e-39
-1.190913719 -2.095890697 1.812257288 0.3881374937 0.7017722995 -0.5973817253 2.295887404e-39
-1.346307584 -1.909232209 1.89614726 0.4244714901 0.6389212935 -0.6415633522 8.265194654e-40
-1.5259837 -1.436257589 2.191811968 -0.4721521433 -0.4885553589 0.7337479233 4.040761831e-39
-1.755561359 -1.403561709 2.047568354 -0.5510826339 -0.454268154 0.699963124 5.510129769e-40
-1.852205532 -1.277180071 2.036780991 -0.5795483105 -0.3917795262 0.7145855853 4.316268319e-39
-1.936220279 -1.04954373 2.065569632 -0.6189183824 -0.2939235774 0.7283879231 4.316268319e-39
-1.65476334 -0.9726671939 2.256209419 -0.4867316477 -0.2542543369 0.8357314373 2.295887404e-39
-2.026755593 -0.4565559948 2.157772901 -0.6275485456 -0.1533016671 0.7633357203 2.204051908e-39
-1.85297029 -0.5293956285 2.25385804 -0.5606588164 -0.1959020012 0.8045396805 2.3877229e-39
-1.744245297 -0.02638837933 2.395660696 0.5491558621 0.08131954854 -0.8317541525 2.755064885e-39
-1.846038758 -0.156509935 2.330896216 0.5674053177 0.09350893341 -0.8181120246 4.132597327e-39
-1.746567386 0.06110254371 2.407031172 -0.5587934628 0.03496130317 0.8285695947 3.673419846e-40
-1.825015971 0.5055077458 2.278176258 -0.5845954513 0.1732163276 0.7926186108 4.132597327e-39
-1.766264273 0.4597726817 2.345893423 0.5910053011 -0.1550678811 -0.7916228182 4.132597327e-39
-1.758827487 0.884051522 2.193181556 0.6014538064 -0.3263675185 -0.7292033747 9.183549616e-40
-1.722259733 0.8698439051 2.25999923 0.5602771558 -0.3007206583 -0.7717879206 9.183549616e-40
-1.569753968 1.191751177 2.186791064 -0.5313050611 0.4307019679 0.7295277561 9.183549616e-40
-1.652129967 1.593199157 1.871008392 -0.5450120002 0.5613482715 0.6227760734 3.673419846e-40
-1.60135276 1.382592839 2.087558211 -0.5244997474 0.4833077234 0.7009377002 4.867281296e-39
-1.569875919 1.595539557 1.934933981 0.5553690785 -0.5381757938 -0.6339810735 5.510129769e-40
-1.504075422 1.88528768 1.674617178 0.5071543741 -0.6611996672 -0.5528195374 2.571393892e-39
-1.351070479 2.09702143 1.564490293 -0.487578007 0.7085773901 0.5100840806 4.224432823e-39
-1.179288094 2.176378457 1.627905007 0.4277374826 -0.7230767473 -0.5424026765 1.836709923e-39
-1.227967765 2.359133797 1.293103506 0.4294737609 -0.8069710832 -0.4054009861 1.561203435e-39
-1.191188522 2.407180159 1.241721411 -0.4182058386 0.8115934003 0.4079461106 2.479558396e-39
-0.6567206271 2.686189246 1.029236482 0.2243058697 -0.9189376546 -0.3244078665 4.408103816e-39
-0.7011074285 2.653027118 1.106230992 -0.2352260374 0.912466798 0.334773138 9.183549616e-40
-0.790158804 2.756116644 0.7385599861 -0.2562726431 0.9388861172 0.2298199106 4.867281296e-39
-0.7392049427 2.743750072 0.842995996 -0.2379152425 0.9341199492 0.2661132426 4.867281296e-39
-0.200059943 2.931703063 0.5131545729 -0.06777308982 0.9848992291 0.1593120107 3.122406869e-39
-0.3189573539 2.934903821 0.3603577647 -0.1087702066 0.9872626516 0.116109857 3.122406869e-39
-0.347070928 2.932771286 0.3786802566 -0.1051670583 0.9878120199 0.1147488702 3.122406869e-39
0.07273822955 2.984998263 0.01387308354 -0.04159227462 -0.9991339148 -0.001225945768 3.122406869e-39
-0.07851395773 -2.990659691 0.03531349957 -0.02350680524 -0.9990640828 0.03630962072 2.204051908e-39
-0.3845493565 -2.956178425 0.1249770857 0.1088207311 0.9931252892 -0.04313013347 2.3877229e-39
-0.3143430175 -2.906659818 0.5310177194 -0.09226072328 -0.9860722563 0.1383815897 3.489748854e-39
-0.5626413144 -2.920788033 0.2908879412 -0.1418273472 -0.9863106634 0.08412062052 3.489748854e-39
-0.5214531649 -2.903091529 0.5344857362 -0.1276285723 -0.9818575769 0.1402378201 5.050952289e-39
-0.4846825259 -2.829456412 0.8329181252 -0.1471206858 -0.9662790298 0.2113299323 5.050952289e-39
-1.031200939 -2.642181239 0.9738226719 0.3272903912 0.896513252 -0.2985715807 9.183549616e-40
-0.8938299886 -2.624940606 1.180639957 -0.3192000137 -0.8876180862 0.3320323543 5.050952289e-39
-0.8700072263 -2.601150291 1.298518243 -0.3027425711 -0.8714530002 0.3858971418 9.183549616e-40
-1.013386985 -2.434503519 1.466226256 -0.3756059416 -0.8154557483 0.440399931 2.3877229e-39
-1.488119719 -2.224512167 1.31762621 0.5068425625 0.7578092329 -0.4108963171 3.030571373e-39
-1.49778197 -2.067378864 1.565268824 0.5293548486 0.7156640486 -0.455640663 1.653038931e-39
-1.539209286 -1.990451267 1.684122803 0.5057484009 0.7020445295 -0.5013502104 3.306077862e-39
-1.674506344 -1.813924914 1.728984653 0.5487688854 0.6462051031 -0.530350521 3.306077862e-39
-1.710298745 -1.460062074 2.034596467 -0.5409262857 -0.4740408482 0.6947546529 5.510129769e-40
-1.910182197 -1.388065965 1.917200641 -0.6025749074 -0.4714767451 0.6439046201 3.306077862e-39
-1.835109854 -1.422049263 1.964301716 0.5737014201 0.4766341561 -0.6660980122 3.306077862e-39
-1.839294584 -1.16020589 2.112481293 -0.6024263081 -0.3115974457 0.7348398296 5.510129769e-40
-1.979138389 -0.7852464073 2.105164144 -0.6306786766 -0.2690091912 0.7279275115 9.183549616e-41
-1.907398419 -0.8827452858 2.148591496 0.6155014145 0.2563468573 -0.7452813546 5.510129769e-40
-2.08388901 -0.4606093439 2.10269131 -0.6502494433 -0.1625694607 0.7421231919 2.204051908e-39
-2.014638812 -0.3701086098 2.189717068 0.633257144 0.1263564947 -0.7635570875 2.204051908e-39
-1.946887637 0.1292447322 2.270384877 -0.6101342756 0.04384371046 0.7910839998 2.755064885e-40
-1.871003972 0.240532748 2.315685791 0.5837178808 -0.09707326927 -0.8061328774 4.132597327e-39
-1.922256039 0.2992645979 2.264261758 0.6240040009 -0.1233242652 -0.7716282346 2.755064885e-40
-1.827394402 0.5466283414 2.257034858 -0.5926456566 0.1865191864 0.7835698557 4.132597327e-39
-1.997307132 0.8752928686 2.001354178 0.6471578362 -0.2977973788 -0.7017859048 1.653038931e-39
-1.840877088 1.263275355 1.957768197 -0.5978905848 0.4438320516 0.6674877966 9.183549616e-40
-2.001837901 1.091214318 1.909045731 -0.6249429543 0.40534447 0.6671897515 9.183549616e-40
-1.607482875 1.523801629 1.992335032 -0.5426484994 0.5357648994 0.646906932 5.510129769e-40
-1.698331229 1.744398842 1.649151351 0.5509662379 -0.6289601141 -0.548493737 9.183549616e-40
-1.595950463 1.816263917 1.676538064 0.5241114653 -0.6515148127 -0.548484841 2.571393892e-39
-1.478829335 1.781944557 1.837431045 -0.498671924 0.6216516082 0.6040493276 1.744874427e-39
-1.403021426 2.046804952 1.5602251 -0.493772127 0.6907376959 0.528271258 5.785636258e-39
-1.259478034 2.125879316 1.632170509 0.4308576868 -0.7289836322 -0.5319252934 1.836709923e-39
-1.042606984 2.460487048 1.315743651 -0.3753348685 0.831153424 0.4102532416 1.561203435e-39
-0.9811098157 2.476572181 1.347244522 -0.3578776317 0.8343074573 0.4193502921 1.561203435e-39
-0.8991350622 2.583796264 1.168485877 0.3126063219 -0.8814776982 -0.3539411746 9.183549616e-40
-0.7968254318 2.633492548 1.115426303 -0.2696512049 0.8979745815 0.3477497357 9.183549616e-40
-0.8471530113 2.668855407 0.9286311798 0.2821980852 -0.9097058097 -0.3046302359 4.408103816e-39
-0.6832827733 2.862442217 0.3966814139 0.2032583879 -0.9723120505 -0.1153052651 3.122406869e-39
-0.4578681453 2.890886659 0.5923821215 -0.1463185775 0.97493708 0.1675964316 3.122406869e-39
-0.1286517876 2.920530844 0.5241581049 -0.05173917464 0.9874981299 0.1488976199 3.122406869e-39
-0.05543484952 2.9841028 0.1559870074 -0.01233555012 0.9990603063 0.04154923096 3.122406869e-39
0.1986112868 2.972092185 0.1884036913 0.07745943985 0.9964267538 0.03367134539 3.122406869e-39
-0.1315040969 -2.984049713 0.1142263011 -0.04371544205 -0.9982906666 0.03879052842 2.204051908e-39
-0.2866704816 -2.940599298 0.3666715461 -0.08046410074 -0.9910799895 0.1062355064 2.3877229e-39
-0.3244560239 -2.955383871 0.2002553335 -0.08812179007 -0.9937040449 0.06918685712 2.3877229e-39
-0.5094269814 -2.865412255 0.653721283 -0.1317767457 -0.9771053079 0.1670332496 5.050952289e-39
-0.3726699326 -2.879829896 0.7005400399 -0.1013165092 -0.9800797207 0.1708177569 5.050952289e-39
-0.8889671652 -2.805181799 0.6196287551 0.2515777263 0.9512263187 -0.1785416987 5.050952289e-39
-1.127213934 -2.5681269 1.077449011 -0.3845366249 -0.859711541 0.3361958512 9.183549616e-40
-1.151434676 -2.586178014 0.9971240425 0.4018826218 0.8601371777 -0.3140929701 9.183549616e-40
-1.221574728 -2.561552913 0.9214846394 -0.4196071441 -0.8601042673 0.2900870453 6.428484731e-40
-1.254159195 -2.401504124 1.24172092 0.4345575028 0.8074613292 -0.3989561111 3.030571373e-39
-1.572540788 -2.071034687 1.448774557 0.5274749484 0.7157511153 -0.4576794945 5.693800762e-39
-1.292187052 -2.256841351 1.500585131 0.4413968754 0.7777543862 -0.447511914 1.653038931e-39
-1.506468141 -2.116478615 1.46505379 0.5337567451 0.7150841644 -0.4513960289 7.622346181e-39
-1.775975823 -1.830404463 1.580532008 0.5623755987 0.6589408342 -0.4995304425 5.693800762e-39
-1.818054997 -1.654783107 1.749059428 0.5982504802 0.5776790393 -0.5553226904 3.306077862e-39
-1.997415992 -1.422200471 1.815647541 -0.6397765329 -0.5079421387 0.5767848574 3.306077862e-39
-2.114537787 -1.378513124 1.737412077 0.6841144156 0.4717020622 -0.5563134286 1.561203435e-39
-2.260341619 -1.057176106 1.714463944 0.7869123733 0.305742881 -0.5359945964 1.102025954e-39
-2.069242961 -0.5672192879 2.080790559 0.6577533544 0.1750511794 -0.7326101347 2.204051908e-39
-2.157366949 -0.703669055 1.935766769 0.7316305111 0.2264038684 -0.6430070635 6.428484731e-40
-2.149828838 -0.3007966413 2.067779651 -0.6928871592 -0.09379147626 0.7149199561 2.663229389e-39
-2.156414665 -0.2289342752 2.074695269 0.6937503339 0.1007985418 -0.713127007 2.204051908e-39
-2.031279992 -0.2013529114 2.19806948 0.6404457902 0.05015591061 -0.7663638656 2.204051908e-39
