# .PCD v0.7 - Point Cloud Data file format
VERSION 0.7
FIELDS x y z normal_x normal_y normal_z rgb
SIZE 4 4 4 4 4 4 4
TYPE F F F F F F F
COUNT 1 1 1 1 1 1 1
WIDTH 508
HEIGHT 1
VIEWPOINT 0 0 0 1 0 0 0
POINTS 508
DATA ascii
-4.577202512 7.169647639 -5.021298411 0.8460975123 0.3024172781 0.4389336962 2.479558396e-39
-0.5694140504 7.923667756 -1.93514234 0.5945954862 -0.669495269 0.445232852 1.102025954e-39
-4.387538228 7.376990734 -5.276794084 0.82121556 0.336284529 0.4609964421 2.479558396e-39
-0.06188528533 8.164680263 -2.449835738 0.6124040648 -0.4755150081 0.6315431406 6.152978243e-39
-4.381424473 8.476516077 -6.383684494 0.652787375 0.4416233836 0.6154977093 5.142787785e-39
4.825189218 1.920037633 -2.163712962 -0.4159451388 -0.5345039229 0.7357276656 3.673419846e-39
4.829603562 1.863218201 -2.217897466 -0.4072092963 -0.5169322071 0.7529685799 3.673419846e-39
5.07387148 2.481684692 -1.354842398 -0.5129564627 -0.726894593 0.4566179125 3.765255342e-39
-1.055075387 1.471676942 -2.789597716 0.05557977001 -0.4411670951 0.8957022292 3.673419846e-40
7.402215171 -2.909026276 -0.9218949526 -0.4287154753 -0.4764645279 0.7675836078 3.673419846e-39
0.1193592612 -4.432931477 -3.61722267 0.5603700324 -0.06093424955 0.8259978475 7.89785267e-39
-0.1087606808 -4.379229364 -3.298533739 0.752935318 -0.1513879697 0.6404452275 5.234623281e-39
-0.005346353111 -4.508659904 -3.47150527 0.6134523715 -0.1691904963 0.7713953356 5.234623281e-39
-0.1893463246 -4.233935013 -3.136655938 0.8217278758 -0.1915116211 0.5367369906 6.979497708e-39
-0.2597853717 -4.454850387 -3.135441984 0.7243321392 -0.3635504908 0.5858105434 5.234623281e-39
-0.3951226301 -4.443412783 -2.882483354 0.7439598759 -0.3980004608 0.536767488 3.857090839e-39
-0.1357330702 -4.160456885 -3.205032731 0.8426365645 -0.04071866923 0.5369409745 6.979497708e-39
-0.2302586012 -4.288594083 -3.045915089 0.8366120741 -0.1362303049 0.530586036 6.061142746e-39
-0.3149435392 -4.489872146 -3.062135003 0.7722792043 -0.2731792599 0.5735485355 3.857090839e-39
-0.4166512302 -4.406867915 -2.772851918 0.8255166962 -0.196596568 0.529029275 1.836709923e-39
-0.3634992224 -4.034792358 -2.618933693 0.8369787921 -0.08442190443 0.5406842365 5.234623281e-39
-0.515294342 -4.279755237 -2.466232532 0.7328608458 -0.3063040188 0.6075301053 1.836709923e-39
-0.5031918085 -4.074317904 -2.327349903 0.7516894714 -0.08765011904 0.653666884 3.857090839e-39
-0.557308955 -4.308788769 -2.3385588 0.7484363184 -0.05290044314 0.6610935036 8.265194654e-40
-0.5633208213 -4.496064795 -2.412270219 0.7585868468 0.05202512877 0.6494916333 3.397913358e-39
-6.374911945 3.342070026 -0.2751712241 0.904982096 -0.1582591585 0.3949195421 1.285696946e-39
5.283257736 2.532645774 -0.9689422769 -0.5592796789 -0.7591464233 0.3330209434 3.765255342e-39
6.330697631 -0.1972611626 -2.261052809 -0.6985728391 -0.3123731413 0.643753842 3.030571373e-39
-2.561862362 2.810779474 -1.804622738 0.02778093031 -0.6145436809 0.7883934831 1.469367939e-39
1.264429436 1.611202851 -2.887416321 0.06503565644 -0.5319703537 0.8442617522 3.673419846e-40
-2.593141283 -3.853883679 -1.59279157 0.653810793 0.2013152721 0.7293857745 6.428484731e-40
-2.773684642 -4.261775169 -1.337985601 0.7370491574 -0.05226216051 0.6738154095 2.204051908e-39
-2.812474173 -4.144359068 -1.276573374 0.797904052 0.02589976514 0.6022278024 2.204051908e-39
-2.825769237 -4.167584462 -1.253503028 0.8240840382 0.01161826177 0.5663484034 2.204051908e-39
-2.933823994 -4.036874826 -1.055309178 0.908206784 0.1538602775 0.3892138904 3.673419846e-40
-2.976669491 -4.095355001 -0.9745008071 0.9218607284 0.08436990456 0.3782254839 3.673419846e-40
-2.912753713 -4.006972757 -1.103391509 0.8910422109 0.1726214542 0.4198161645 3.673419846e-40
-3.075095641 -3.97516857 -0.5907425643 0.9503902907 0.292840729 0.1048932927 1.010190458e-39
-2.973604469 -4.075316273 -0.9576208301 0.936179484 0.1230846218 0.3292691143 3.397913358e-39
-3.111138583 -3.864540066 -0.7023755017 0.8967383836 0.4013348094 0.1865224978 3.489748854e-39
-2.998483613 -4.147141953 -0.3452535348 0.9798231866 0.1678635203 -0.1084820791 4.040761831e-39
-3.019714178 -4.190238091 -0.497107046 0.9976496512 0.06496009055 -0.02180275314 1.010190458e-39
-2.945140182 -4.104694667 -0.1795731423 -0.9265148074 -0.3163738118 0.2036612947 3.214242366e-39
-2.88666613 -4.119000785 -0.03114886512 -0.8989079357 -0.3288965054 0.2894678079 3.214242366e-39
-3.085669279 -3.892487381 -0.1270446501 0.8071382649 0.5834800733 -0.08988228693 3.214242366e-39
-2.914268845 -4.065644147 0.0007533243729 -0.8698316626 -0.4132186506 0.2695240722 3.214242366e-39
-2.919562175 -3.997877861 0.09024013876 -0.8037881001 -0.5420984062 0.2450591932 3.214242366e-39
-2.726871657 -4.232544126 0.1667240847 -0.8918341119 -0.1121707087 0.4382346961 3.214242366e-39
-6.220303427 -0.1225110068 -0.03840861738 0.9772560055 0.02920803655 0.2100418776 3.030571373e-39
-6.174464495 -0.03992751973 -0.2147568553 0.9618039829 0.002716914114 0.2737256234 3.030571373e-39
-6.594542934 3.601625139 0.9082301157 0.9655649883 -0.2538617246 0.05690762767 0
-4.230948238 6.329981706 -5.286199185 0.9341549041 0.1299563161 0.3323642146 3.58158435e-39
-5.491699831 1.844108767 -1.056436057 0.6801984304 0.1594939104 0.7154661333 4.408103816e-39
-2.46801511 -4.252943342 0.5634408451 -0.9159900196 -0.2086312988 0.3426882916 3.214242366e-39
-2.39745315 -4.240357943 0.6787562856 -0.9328906295 -0.2661452217 0.2426557116 3.214242366e-39
-2.652760932 -3.942472939 0.7710847454 -0.7018998853 -0.6816589377 0.2065856811 3.214242366e-39
-2.494437883 -4.024719973 1.214102932 0.8793230303 0.4600673217 -0.1230002761 3.214242366e-39
-2.53743383 -4.009479267 1.059181137 -0.8313774314 -0.533286589 0.1562593375 3.214242366e-39
-2.568364047 -3.94165122 1.332362736 -0.8315509006 -0.5262456281 0.177731929 3.214242366e-39
-2.539145492 -3.98794869 1.492613476 -0.9035689143 -0.3941786634 0.1678880536 2.571393892e-39
-2.502133761 -4.011218395 1.486295222 -0.9260946691 -0.3510152535 0.1383363856 3.214242366e-39
-2.543750763 -4.040800209 1.517664455 -0.9397806377 -0.3068142713 0.1505900259 2.571393892e-39
-2.525194421 -4.016448026 1.533310018 -0.9285715447 -0.33668709 0.1561943972 3.214242366e-39
-2.482334179 -4.109285161 1.939085985 -0.9669762406 -0.0136147678 0.2545026292 3.214242366e-39
-2.576575228 -3.86554504 1.818840148 -0.8856889498 -0.3024408273 0.3522564836 2.571393892e-39
-2.485927603 -4.261001743 2.139788171 -0.9064229234 0.2514362787 0.339377786 3.214242366e-39
-2.525948164 -4.333700942 2.167716773 -0.8663840395 0.3503766908 0.355829834 2.571393892e-39
-2.335687736 -3.895714732 2.385903632 -0.8241852502 -0.04335869968 0.564658035 5.510129769e-40
-6.29715998 -0.07048938887 0.518458243 0.9994794943 0.03092683635 0.009179937059 2.571393892e-39
-5.896859324 5.381670673 -0.07165068135 0.7613825435 -0.4467987946 0.4697525514 1.469367939e-39
-4.535375818 5.581167347 -4.342043126 0.7977066482 0.5446740921 0.2588324493 3.58158435e-39
-6.081785531 4.453512678 -0.1068675852 0.8873726396 -0.2276478342 0.4009317423 9.183549616e-41
-6.070420462 5.779567076 1.084535731 0.6367774386 -0.7696748967 -0.04598964091 3.030571373e-39
-6.277247715 5.586889926 1.348102429 0.7904954089 -0.5873535311 -0.1735881272 3.030571373e-39
-4.575793139 5.97291506 -4.518054451 0.9141563971 0.2611182605 0.3100569877 3.58158435e-39
-4.56896668 6.508420722 -4.616362847 0.8914774348 0.2049743787 0.4040463925 3.58158435e-39
4.044199758 -0.4133765797 -3.701426337 -0.4038388823 -0.4146908059 0.8154420229 1.469367939e-39
-1.112385256 7.738617183 -1.691828591 0.5522204656 -0.8058604175 0.2136388188 2.112216412e-39
-2.162079259 7.069764905 -1.371975972 0.7334739669 -0.5508035804 0.3982855203 1.469367939e-39
-4.946167775 7.752610175 -5.235727107 0.6709995167 0.5552509449 0.4913817627 3.857090839e-39
-4.426967839 6.927121103 -5.142486026 0.8720265876 0.2222637498 0.4360830838 3.58158435e-39
6.119128713 0.2607828335 -2.217825627 -0.6468566935 -0.3412548998 0.6819981755 5.510129769e-39
-2.623029137 6.625533628 -0.7927387987 0.6538179207 -0.7561037046 0.02879782048 1.285696946e-39
-5.009707586 6.656709111 -2.931823471 -0.9093350311 0.3569398595 0.2137843255 2.755064885e-40
-4.927204988 7.107014175 -4.301255361 0.9863571753 0.07351720038 0.1472913578 2.755064885e-40
-5.055070576 7.073341933 -4.167666882 0.989930139 0.1126717937 0.08569356364 9.183549616e-41
0.2505577711 8.370444724 -2.64831108 0.6630909203 -0.4134528331 0.6239929377 1.836709923e-39
-4.191950704 8.605579893 -6.673119311 0.6661318769 0.5245591423 0.5301943312 5.142787785e-39
-6.096658697 4.299910142 -0.1716751276 0.8858397984 -0.2570911126 0.3862538174 9.183549616e-41
0.7760573153 8.40514938 -3.026368611 0.672307657 -0.04624680854 0.7388258571 2.295887404e-39
3.959060146 1.972952356 -2.516603416 -0.3022300083 -0.477596716 0.8249596347 3.673419846e-39
4.899289967 1.916515464 -2.119359568 -0.4317426928 -0.5422269506 0.7208246536 3.673419846e-39
2.370568803 2.280918474 -2.452920877 0.05239842444 -0.6396939093 0.7668416443 3.673419846e-40
-0.7752029414 1.169483145 -2.938065641 0.09572896896 -0.3761466563 0.9216016805 3.673419846e-40
5.619393304 -0.5209362097 -2.918345141 -0.5143801171 -0.2593857546 0.8173934949 3.673419846e-39
0.02978193983 -4.136882904 -3.518454196 0.7565347604 0.04065251288 0.6526886926 2.755064885e-40
0.004689155544 -4.281949952 -3.521072261 0.6851404712 -0.1031314258 0.7210731196 2.112216412e-39
-0.05392036433 -4.379648021 -3.370088733 0.7359017104 -0.09111510346 0.6709297359 5.234623281e-39
-0.119628397 -4.163635669 -3.231417365 0.8398551179 0.01151769833 0.5426884221 6.979497708e-39
-0.1035654389 -4.292175587 -3.327095972 0.7663020622 -0.1806076746 0.6165727997 6.979497708e-39
-0.2408301578 -4.180579584 -2.969546775 0.8641711859 -0.09288976643 0.4945499497 5.234623281e-39
-0.1796630524 -4.139847657 -3.10391424 0.8594867204 -0.05781419691 0.5078780327 6.979497708e-39
-0.3241333685 -4.380283444 -2.977354063 0.75903973 -0.3698871097 0.5357632074 5.234623281e-39
-0.3987346487 -4.295486492 -2.699197797 0.8053200871 -0.2616015408 0.5320001797 4.132597327e-39
-0.334385896 -4.23341077 -2.786608193 0.8626339848 -0.1069534893 0.494392111 3.857090839e-39
-0.4277179504 -4.125945419 -2.513540677 0.7948705115 -0.1678855007 0.5830911838 2.204051908e-39
-0.3256404714 -4.05750836 -2.7144166 0.8521944395 -0.09403121834 0.5147064865 5.234623281e-39
-0.5664854207 -3.955768196 -2.239619295 0.6739597259 0.0004322844538 0.7387679615 6.612155723e-39
-0.5243340109 -4.246426102 -2.412908993 0.7449084226 -0.2375602902 0.6234392917 2.938735877e-39
-0.5083875941 -4.046357447 -2.335415562 0.7363374362 -0.09871549351 0.669374657 3.58158435e-39
-2.713814054 2.339006362 -2.185435502 0.1334030192 -0.5578912854 0.8191220594 1.469367939e-39
-6.354957419 3.129864719 -0.3654812659 0.8965037304 -0.0967471496 0.4323436716 1.836709923e-39
6.559211659 -0.09262200064 -1.881764179 -0.7882380075 -0.2890766256 0.5432453848 5.418294273e-39
5.721047196 -0.5840029109 -2.877568594 -0.5378459017 -0.2357539427 0.8094083422 3.673419846e-39
1.058040521 1.420140857 -2.965606251 0.06438441324 -0.4897247428 0.8694965921 1.285696946e-39
-2.386215121 -3.95214782 -1.76371546 0.5373872766 0.1507913071 0.8297450793 1.653038931e-39
-2.608067491 -3.832111865 -1.582334221 0.6586704264 0.2149327263 0.7210805729 6.428484731e-40
-2.632107511 -3.966751867 -1.532358025 0.6730423056 0.1457760468 0.7250954413 6.428484731e-40
-2.8622269 -4.00604707 -1.194430087 0.863695007 0.1662731911 0.4757984456 2.938735877e-39
-2.689749057 -4.013511824 -1.446181549 0.7407064872 0.1255132463 0.6600002461 2.204051908e-39
-2.789532796 -3.782431357 -1.385748539 0.7409009573 0.2692969883 0.6152600292 2.204051908e-39
-2.859381467 -4.013726654 -1.216352288 0.8252689816 0.1306302962 0.5494240928 2.938735877e-39
-2.958749918 -4.07610734 -1.01678538 0.9077977218 0.1000439766 0.4073014843 3.673419846e-40
-2.996618254 -4.024868195 -0.9116871557 0.9373523699 0.1818501822 0.2971549189 3.397913358e-39
-3.07494031 -3.813242649 -0.7970893349 0.861462558 0.4488655187 0.237491068 3.397913358e-39
-3.039154301 -3.99846008 -0.4401949901 0.9321832526 0.3619520534 -0.005009458763 1.010190458e-39
-3.048440971 -4.064207228 -0.7261930874 0.9694305697 0.1532748441 0.1916016508 3.489748854e-39
-3.183732149 -3.799005528 -0.1828331224 0.7578783171 0.652310904 -0.01053284888 3.214242366e-39
-2.979354786 -4.028686066 -0.1679614624 -0.8910263666 -0.4218255701 0.1677355134 3.214242366e-39
-3.096064898 -3.877113347 -0.2580166074 0.8183884407 0.573941148 -0.02884300128 3.214242366e-39
-2.889547347 -4.064791783 0.06347033401 -0.8546682396 -0.4285286689 0.293096196 3.214242366e-39
-3.074606264 -3.899219203 -0.2752611031 0.8326185919 0.5526984809 -0.03564645221 3.214242366e-39
-2.982753868 -3.897046864 0.1502407835 0.6895301319 0.7067480689 -0.1582888638 3.214242366e-39
-2.922054037 -3.906896868 0.3302940253 -0.6684423332 -0.716721871 0.1987325009 3.214242366e-39
-2.79186594 -4.095920626 0.2156797046 -0.8388293353 -0.4180192166 0.3487481625 3.214242366e-39
-2.611121328 -4.134915178 0.4428487339 -0.8468002215 -0.4020442179 0.3482668974 3.214242366e-39
-2.625131186 -4.097605577 0.4060069383 -0.8119866957 -0.4811793101 0.3303696074 3.214242366e-39
-2.517469444 -4.089100041 0.7638782886 -0.8501956985 -0.4818141323 0.2121848634 3.214242366e-39
-6.209588612 3.459290645 -0.5997739533 0.851015679 -0.1777737338 0.4941344085 1.285696946e-39
-6.087732524 3.838216688 -0.625947863 0.8303749278 -0.2490739746 0.498437192 1.285696946e-39
-6.13340629 3.660773477 -0.6064614129 0.8387989562 -0.2128281409 0.5011192408 1.285696946e-39
-6.212383907 3.626767875 -0.5470652245 0.855573707 -0.2237836434 0.4668131456 1.285696946e-39
-6.197916188 3.653569501 -0.5434176063 0.8535970044 -0.2262801289 0.4692221834 1.285696946e-39
-6.374420016 3.688085759 -0.1000304654 0.9131403587 -0.250586053 0.3215296493 9.183549616e-41
-6.291015689 3.813503689 -0.1780708222 0.8996300083 -0.2623149071 0.3490798444 9.183549616e-41
-6.340632652 3.756135445 -0.1292378705 0.9072350963 -0.2588630532 0.3315334067 9.183549616e-41
-6.436836858 3.51832255 0.02758890413 0.929844648 -0.219402254 0.2953837869 1.744874427e-39
-6.465860333 3.646980331 0.3105267179 0.9418616742 -0.2506705823 0.223742812 1.469367939e-39
-6.531837808 3.549455211 0.3541412408 0.945805052 -0.2426340533 0.2158275232 5.510129769e-40
-2.491911812 -4.136305638 1.579346389 0.985019555 0.1432353894 -0.09602134908 3.214242366e-39
-2.509277463 -3.995058149 1.880835487 -0.9432361992 -0.1618514922 0.2900164945 2.571393892e-39
-2.497353957 -4.059354623 1.755166691 -0.96727375 -0.1660602165 0.1918475881 3.214242366e-39
-2.452222556 -3.905913341 2.100542272 -0.9011607878 -0.1540806413 0.4051769867 2.571393892e-39
-6.355770367 3.88551338 0.1502838143 0.9279630541 -0.25966909 0.2673135498 9.183549616e-41
-6.482181397 3.76210731 0.5947332383 0.9548391284 -0.2557353563 0.1512668712 5.510129769e-40
-6.034195379 5.428555046 0.08328561869 0.7781412304 -0.4255601318 0.4619467499 1.469367939e-39
-6.138783503 5.260067677 0.1205009625 0.8394006441 -0.26764841 0.4730442763 1.469367939e-39
-6.453495167 2.694354468 -0.2695653154 0.9100161189 0.04747273192 0.4118458487 1.836709923e-39
-4.572075493 5.560565693 -4.306640336 0.8641796396 0.4489109906 0.2273158001 3.58158435e-39
-6.581382486 3.546423464 0.6800855113 0.9605769782 -0.2467852678 0.1280191411 1.744874427e-39
-4.601396978 6.200008974 -3.718510363 0.9248874296 0.094584306 0.3682893585 2.3877229e-39
-4.106301012 6.517879684 -5.598633654 0.9702613922 0.0005276408129 0.2420589853 3.58158435e-39
-3.79964714 7.610121286 -6.546502463 0.8505139812 0.1908501466 0.4901042638 4.499939312e-39
-1.199460772 7.705074376 -1.716539174 0.573461731 -0.7692035183 0.2818999655 2.112216412e-39
-1.971784288 7.049353823 -1.527265325 0.6796933871 -0.4837712285 0.5513458969 2.846900381e-39
-2.033999149 7.186496931 -1.324901163 0.6874205894 -0.688739881 0.230413345 1.469367939e-39
-5.110755035 6.95071376 -3.728583629 0.9891034369 -0.1064836386 -0.1016642797 9.183549616e-41
-5.988808182 4.354404042 -0.4041417716 0.850775553 -0.2717960272 0.4497864805 9.183549616e-41
-6.263829817 3.883934103 -0.1997512013 0.8945672611 -0.2696184954 0.356448148 9.183549616e-41
-4.435532781 6.225990112 -4.691535631 0.8911444957 0.1858916171 0.4138910419 3.58158435e-39
-4.66801596 6.094659415 -4.191127821 0.922082505 0.2818457849 0.2651920201 3.58158435e-39
-4.443535853 6.807625845 -5.070363279 0.8788656546 0.2199156587 0.4233583167 3.58158435e-39
0.03037862574 8.159304943 -2.327058767 0.6464822324 -0.3530670456 0.6763167782 7.346839693e-40
-4.248809839 8.305757326 -6.333007495 0.6866101423 0.4654249783 0.5585213533 5.142787785e-39
0.9386357208 8.54365499 -3.165337554 0.6851430044 -0.02005723706 0.7281323855 2.295887404e-39
0.8032094526 8.700146884 -3.055693061 0.6945274548 -0.2157365572 0.6863594921 3.214242366e-39
0.9605888617 8.796969276 -3.09644322 0.7382662869 -0.02894462533 0.6738880458 2.295887404e-39
4.806557432 2.132512356 -2.021824087 -0.4301333172 -0.5972425855 0.676968702 3.673419846e-39
1.602541988 2.349205128 -2.338593287 0.1061390282 -0.6853357721 0.7204508215 3.673419846e-40
2.274999807 2.521023052 -2.214875055 0.05210619842 -0.6947116653 0.7173985268 3.673419846e-40
5.02786004 2.283611302 -1.69448744 -0.4901514122 -0.6649312336 0.5635761241 3.765255342e-39
1.144117632 2.909121494 -1.426918874 0.1939460803 -0.8591857147 0.4734816001 1.836709923e-40
0.2259851528 -3.950900856 -3.831003773 0.6535547829 0.2640710173 0.709318436 1.836709923e-39
0.01690538888 -4.091571802 -3.512760469 0.7714212677 0.05220281427 0.6341798593 1.836709923e-40
0.01112827086 -3.966824487 -3.527804278 0.7898146295 0.169941414 0.5893324757 1.836709923e-40
-0.1185397718 -4.063346735 -3.267781859 0.8483888077 -0.02707299766 0.5286808903 8.724372135e-39
0.0461442703 -4.020363415 -3.579397744 0.763635686 0.1208884567 0.6342290754 1.836709923e-40
-0.08731177333 -4.21817977 -3.296799384 0.809493037 -0.03641605022 0.5859990566 6.979497708e-39
-0.1549470345 -3.775429588 -3.280089364 0.8789377541 0.1120351578 0.4635909273 2.204051908e-39
-0.1996934394 -4.105168128 -3.06429436 0.8668895415 -0.07673828242 0.4925583812 6.979497708e-39
-0.327239229 -4.08729875 -2.727521486 0.844685207 -0.1274814268 0.5198609304 5.234623281e-39
-0.322778445 -3.814865604 -2.731012017 0.8754957696 0.08546741007 0.4756074845 2.112216412e-39
-0.3419311348 -4.240800045 -2.79429173 0.80818644 -0.2644085983 0.5262345212 3.58158435e-39
-0.3665626404 -4.231751508 -2.740556666 0.7954683171 -0.2771414781 0.5389088583 3.58158435e-39
-0.4326689842 -4.069383954 -2.545473436 0.7717068199 -0.1622940815 0.6149221213 6.979497708e-39
-0.4165342604 -4.019416731 -2.528215425 0.7938804416 -0.104957422 0.5989472297 6.979497708e-39
-0.6879344669 -3.858997806 -2.153693041 0.5469326717 0.07638332838 0.8336847364 2.112216412e-39
-0.5382268327 -4.011039309 -2.304632328 0.7027133594 -0.07842209874 0.7071378288 6.979497708e-39
-0.6138222405 -4.172596359 -2.23473861 0.6515065914 -0.178165538 0.7374253877 2.938735877e-39
-6.305640986 4.038354469 0.1923922339 0.9298980564 -0.2481171072 0.271528094 9.183549616e-41
5.859651127 0.1423255688 -2.453037206 -0.5790048749 -0.3523897141 0.7352379508 3.673419846e-39
1.733892086 2.887700206 -1.728728723 0.1725252522 -0.802207095 0.571575729 1.836709923e-39
0.9629368731 1.670341971 -2.817934217 0.07992019791 -0.5627508499 0.8227540598 1.285696946e-39
-2.443079339 -3.753023722 -1.768022368 0.5421970968 0.2339250478 0.807032453 3.030571373e-39
-2.637853428 -3.624151295 -1.647745981 0.598178042 0.3097339134 0.7390858765 3.030571373e-39
-2.747364493 -3.965433418 -1.392853175 0.7383188646 0.1476784451 0.6580853524 2.204051908e-39
-2.821903547 -3.659872423 -1.399102252 0.7020154278 0.3456147282 0.6226755164 2.204051908e-39
-2.916694085 -3.691000798 -1.280238487 0.7009838629 0.3602556558 0.6154977551 2.204051908e-39
-3.097039754 -3.631537192 -1.063754616 0.7312462535 0.5167902008 0.4452042286 3.673419846e-40
-3.02270946 -3.953743616 -0.8473619886 0.925736413 0.2837355277 0.2500124876 3.397913358e-39
-2.934023529 -3.652897846 -1.23295119 0.7545462637 0.4111676363 0.51146956 3.489748854e-39
-3.150758201 -3.708847556 -0.8993496966 0.7928654318 0.5022440766 0.3451308369 1.19386145e-39
-3.212561254 -3.716581825 -0.5320189825 0.7478736545 0.6473242608 0.1471607907 1.010190458e-39
-3.017511463 -3.989216246 -0.8646296393 0.935971225 0.2291153243 0.2673275785 3.397913358e-39
-3.074551736 -3.952757568 -0.6894812852 0.9393103872 0.2982595395 0.1695206291 3.489748854e-39
-3.190018279 -3.778767407 -0.6322247773 0.8454922767 0.5059728833 0.1706875846 6.061142746e-39
-3.074864478 -3.867238846 -0.1408834879 0.7503760287 0.6586050242 -0.05634924717 3.214242366e-39
-3.118058619 -3.841583007 -0.2484377071 0.7782015965 0.6279746207 -0.00708173924 3.214242366e-39
-3.043754788 -3.908019774 -0.0946015722 0.7824461223 0.6136106739 -0.1061131783 3.214242366e-39
-3.297406534 -3.69928067 -0.1159885237 0.6332238937 0.7732549013 0.03323188201 3.214242366e-39
-3.233929806 -3.73744544 -0.1316558174 0.6633315465 0.7481411949 0.01661360264 3.214242366e-39
-2.919044328 -3.88364497 0.3443748467 -0.6281855435 -0.7578570586 0.1761692415 3.214242366e-39
-6.245133303 4.095057586 -0.03395815157 0.9064957237 -0.2546687006 0.3367630561 9.183549616e-41
-6.247994946 4.205269984 0.1211653467 0.9225170314 -0.2252014958 0.3134431577 9.183549616e-41
-6.333590955 4.178773655 0.5006732186 0.9589612297 -0.1982077029 0.2027487766 5.510129769e-40
-6.393849596 4.041272964 0.6019072505 0.9621133905 -0.2194271354 0.1618318757 5.510129769e-40
-6.377379995 4.025857576 0.4756413572 0.9529963462 -0.2281642362 0.1993465462 5.510129769e-40
-6.435179988 3.997115324 0.7681357703 0.9699470588 -0.2186760275 0.1066934774 5.510129769e-40
-2.711400081 -3.889805893 0.8527719196 -0.6618615389 -0.7199955092 0.2086762328 3.214242366e-39
-6.535475797 3.662030229 0.5453686382 0.9520090713 -0.2527931822 0.1725524127 5.510129769e-40
-5.057367985 7.579524545 -4.809220915 0.8069490569 0.4827232597 0.3403108491 7.438675189e-39
-4.089952663 6.708729132 -6.120153707 0.8625193176 0.1188866936 0.4918601232 4.499939312e-39
-3.93533735 6.670435732 -6.291095687 0.8841128462 0.05472576054 0.4640577187 4.499939312e-39
-5.924806958 4.713319079 -0.2654174934 0.8529526439 -0.2435002272 0.4617135763 9.183549616e-41
-6.48070788 3.895688538 0.7370398677 0.9657766832 -0.2317319723 0.1165147684 5.510129769e-40
-2.59335191 -3.691691197 1.928323141 -0.7977148551 -0.4238183803 0.4289860026 5.510129769e-40
-6.53012225 3.632844402 0.6270159421 0.9571513955 -0.2529304099 0.1410227421 5.510129769e-40
-6.487982141 3.912210997 1.156968426 0.9732421596 -0.2274897403 -0.03237463267 3.673419846e-39
-6.646512192 3.49021327 1.131624921 0.969899831 -0.2426646961 -0.02020304928 1.744874427e-39
-6.620431629 3.549686966 1.240743486 0.9659370723 -0.2518398854 -0.05951675766 0
-6.498475641 3.805996095 1.416543839 0.9637694932 -0.2415717952 -0.1130992119 5.142787785e-39
-6.542446538 3.697765295 1.409041383 0.9611305135 -0.2532005831 -0.110079974 0
-1.374019952 7.533650911 -1.846237125 0.639180787 -0.4936311272 0.5897255563 2.663229389e-39
-4.026511556 6.036427096 -6.138252571 0.9696789038 -0.1593768849 0.1852615235 3.58158435e-39
-4.447735905 5.626638337 -4.668965753 0.8373662565 0.4368924516 0.3285464019 3.58158435e-39
-4.4742959 5.385465338 -4.382015849 0.400020451 0.8737617383 0.276629831 3.58158435e-39
-6.135849221 5.699353278 0.6078484468 0.6928202626 -0.694645007 0.1935675541 3.030571373e-39
-4.629376597 6.012013652 -3.787312445 0.909704506 0.3120311523 0.2739968461 3.58158435e-39
-4.165696312 6.347497638 -5.683052034 0.9371537271 0.1069012032 0.3321370568 3.58158435e-39
-4.869724225 7.75166253 -5.175373828 0.5611797599 0.6538597919 0.5074885709 3.857090839e-39
-1.287355248 7.538816043 -1.792699787 0.6213255841 -0.6081668503 0.4940522247 2.204051908e-39
-2.304045654 6.889888786 -1.256615329 0.7368203736 -0.5870429755 0.335374838 5.510129769e-40
-6.481174022 3.847027507 1.403920643 0.9657249501 -0.2355379014 -0.1090743681 5.142787785e-39
-6.569054433 3.557519989 1.494746942 0.9603221908 -0.2506214837 -0.1223526125 0
-4.721496414 5.696750831 -3.580780516 0.870447399 0.4417780182 0.2171485854 2.3877229e-39
-0.1051546102 2.859044928 -1.1573366 -0.06647795498 -0.9306348646 0.3598602929 3.030571373e-39
-6.523399242 3.741179597 1.423149575 0.9617284658 -0.2484430156 -0.1155613518 5.142787785e-39
-4.846167804 5.956564534 -3.295085572 0.9512926209 0.2495560294 0.181008667 1.102025954e-39
-4.237113607 7.01526205 -5.467715686 0.8981179341 0.149176089 0.4136794301 3.58158435e-39
-4.562548319 8.562260142 -6.317232199 0.6517337294 0.3045190663 0.694630322 3.673419846e-40
0.5931107472 8.331200935 -3.000597939 0.6414797107 -0.1758036961 0.746724073 2.295887404e-39
-2.659628314 6.583726051 -0.5183404653 -0.5395191346 0.812636244 0.2203212164 1.285696946e-39
0.7528615164 8.552792434 -2.919942138 0.715553089 -0.07345949852 0.6946851653 2.295887404e-39
1.156847783 8.606163352 -3.35147705 0.6976792095 0.07971023894 0.7119620766 2.295887404e-39
-0.04632342486 2.555495788 -1.76336584 -0.01871365193 -0.8282991002 0.5599735707 3.030571373e-39
1.887395045 2.400772999 -2.334902293 0.08440473946 -0.67180275 0.7359055001 3.673419846e-40
4.667009937 2.303257602 -1.946944695 -0.4114447523 -0.6401146457 0.6488192784 3.673419846e-39
1.137978539 2.698595735 -1.798759738 0.1677445737 -0.807018687 0.5662001384 1.836709923e-40
0.1161507356 -3.832188 -3.76855067 0.722887924 0.2257539538 0.653045329 6.428484731e-40
0.1221588241 -3.641473455 -3.880421679 0.7113507576 0.2806507167 0.6443720004 4.591774808e-40
0.04919564479 -3.849097898 -3.654779378 0.7680892321 0.2032807991 0.6072197693 6.428484731e-40
-0.05191269427 -3.877661876 -3.475298977 0.828623854 0.1035448593 0.5501463175 6.428484731e-40
-0.09006875948 -4.02533962 -3.353851222 0.8373016106 -0.01749632854 0.5464612442 6.428484731e-40
-0.07044438192 -4.072233828 -3.37626209 0.8226119018 -0.0217321284 0.5681877978 2.755064885e-40
-0.1978887828 -3.784894495 -3.137714552 0.8893333652 0.1188104124 0.4415543583 2.112216412e-39
-0.1422884084 -4.102613395 -3.215654936 0.8487468179 -0.07079491727 0.5240390432 7.89785267e-39
-0.2247337627 -3.977005304 -2.982948511 0.8870991721 0.009750456142 0.4614758797 8.724372135e-39
-0.2260249435 -3.857513417 -3.023783634 0.890404871 0.06045597003 0.4511366106 2.112216412e-39
-0.3247989599 -3.72643666 -2.810641649 0.853630857 0.06952150136 0.5162180942 2.295887404e-39
-0.4039793459 -4.062907911 -2.560640032 0.7997670601 -0.1357690969 0.5847558482 5.234623281e-39
-0.3005358809 -3.875208684 -2.771711324 0.8843055165 0.06114787152 0.4628873419 2.204051908e-39
-0.3703025784 -3.909659564 -2.607417669 0.835965159 0.001714020211 0.548779842 2.112216412e-39
-0.4254210905 -3.679721165 -2.513763256 0.8316664303 0.1652185466 0.5301261931 2.295887404e-39
-0.5548382229 -3.922181681 -2.327298392 0.6847158204 -0.03667319021 0.7278868884 2.112216412e-39
-0.5092994326 -3.898911446 -2.322132174 0.7338252349 0.03793342233 0.6782783943 2.112216412e-39
-0.4928017613 -3.681437694 -2.390049619 0.7714104611 0.1727149396 0.6124503654 2.295887404e-39
5.993523611 0.4164470154 -2.224312766 -0.6211949725 -0.3484464898 0.7019272397 5.418294273e-39
-3.00316034 2.712896877 -1.808614995 0.08187125837 -0.5077222632 0.8576218284 1.469367939e-39
0.6851405848 1.46631035 -2.906026401 0.07714871598 -0.5150326449 0.85369166 2.755064885e-39
7.543885532 -3.155161639 -1.133699918 -0.4323476053 -0.3702757289 0.8221748189 3.673419846e-39
-2.562578262 -3.599825755 -1.720399633 0.5647538176 0.3056622019 0.7665662032 3.030571373e-39
-2.691341095 -3.545016448 -1.603357266 0.6221832687 0.3556273815 0.697436123 6.428484731e-40
-2.720711117 -3.548341438 -1.566299516 0.6373552438 0.3643029644 0.6790152011 6.428484731e-40
-3.039918659 -3.500627174 -1.284709292 0.627243787 0.5204878574 0.5793596655 3.857090839e-39
-2.950423163 -3.868556835 -1.096968409 0.8527630442 0.2882449508 0.4355571591 3.673419846e-40
-3.014953621 -3.627210369 -1.109568632 0.752204046 0.4967853954 0.4328895287 3.673419846e-40
-3.176414736 -3.631475714 -0.9151701906 0.7357471594 0.5850177857 0.3412188562 1.19386145e-39
-3.059379506 -3.659666422 -1.050970793 0.7628990348 0.4951527263 0.415702827 3.673419846e-40
-2.986334331 -3.836010629 -1.059432434 0.8414044818 0.3243088149 0.4322757113 3.673419846e-40
-3.21511366 -3.626603548 -0.8456062509 0.7207976745 0.6237444539 0.3023136925 3.489748854e-39
-3.214856355 -3.558502527 -0.9014543107 0.6522813491 0.6795473015 0.3357744877 1.19386145e-39
-3.351780656 -3.615085886 -0.3530614672 0.5857684139 0.7985614084 0.1384739772 3.214242366e-39
-6.357164385 4.255752064 0.5760777194 0.9686908597 -0.1596033084 0.1901704558 5.510129769e-40
-6.363809636 4.376956227 0.7238560329 0.9827468205 -0.1142105056 0.1454807454 3.030571373e-39
-6.482376043 3.921107204 0.9028197977 0.9716191403 -0.2286730043 0.06053844491 5.510129769e-40
-6.433086628 4.116287028 1.034852001 0.9847114799 -0.1738297757 0.01124768874 5.142787785e-39
-6.384843281 4.336874297 1.093903942 0.9952039546 -0.09781498117 -0.001148167062 3.030571373e-39
-6.373232093 4.176466525 1.35065218 0.9856349416 -0.1463583765 -0.08427922386 3.030571373e-39
-4.652441642 -0.01704494513 -2.386929237 0.4852324124 -0.1389776252 0.8632697873 4.408103816e-39
-4.838135731 -0.3000327178 -2.283693995 0.5692293195 -0.04911465348 0.8207105048 3.58158435e-39
-1.004529168 7.330006262 -1.905142973 0.5465151576 -0.4718934818 0.6918364867 1.836709923e-39
4.475021094 0.08968708431 -3.261834887 -0.3338209846 -0.4107780066 0.8484249994 1.010190458e-39
4.278154568 0.3189753784 -3.195685798 -0.2732210242 -0.4405974768 0.8551164455 5.785636258e-39
-6.568322962 3.502383565 1.556880633 0.9619294872 -0.2417300866 -0.1275077523 2.112216412e-39
-6.465084003 3.618299131 1.773670101 0.955683354 -0.2581464319 -0.1415264872 2.112216412e-39
-3.570639194 4.089286834 -1.616863693 -0.2961545371 -0.01664458077 0.954994999 5.785636258e-39
-6.400462291 4.098275001 1.416447294 0.979459637 -0.1689891839 -0.110006705 5.142787785e-39
-6.37354062 4.156304217 1.461588593 0.9818139781 -0.1503842274 -0.1158701715 3.030571373e-39
-6.305743054 4.090901753 1.747723574 0.9750934937 -0.1746320252 -0.1367345396 3.857090839e-39
-4.958299449 7.335311327 -4.789527933 0.8511989283 0.4154484694 0.3207225496 7.438675189e-39
-6.417270241 3.558444917 2.097844745 0.959988868 -0.2545227459 -0.116788463 2.112216412e-39
-6.306672419 3.91946505 1.998284864 0.9676078618 -0.2208955624 -0.122230014 3.857090839e-39
-6.450734436 3.535083194 2.054182494 0.9589671227 -0.2570857469 -0.1195365063 2.112216412e-39
-6.362296528 3.705924874 2.286555173 0.963467531 -0.2491402913 -0.0982824091 3.857090839e-39
-5.62024051 4.383635378 -0.9489473737 0.7178188579 -0.2288447235 0.6575455724 2.295887404e-39
-4.981843764 6.767347506 -2.928308593 -0.8126879063 0.5044509232 0.2916635613 3.673419846e-40
-3.544278885 7.554235725 -6.876265492 0.9516343556 0.1148362123 0.2849643796 4.499939312e-39
-3.973342726 7.51546005 -6.066703825 0.8850307392 0.2372200684 0.4005586472 4.499939312e-39
-4.310752161 5.980067157 -5.192904411 0.9253215201 0.1707071876 0.3385840227 3.58158435e-39
-4.28905996 5.615008305 -5.570001994 0.9001649477 -0.4350363871 0.02112838997 3.58158435e-39
-4.719949032 7.884315727 -5.449919424 0.5658922694 0.6271918864 0.5351600482 1.653038931e-39
-4.601134801 6.411414545 -4.231834667 0.9134053756 0.148102769 0.3791519347 3.58158435e-39
-4.120357507 6.37600393 -5.398976572 0.9815554773 -0.04534418225 0.1857222393 3.58158435e-39
-4.512665064 5.40653622 -4.220779021 0.5620499825 0.79356246 0.2331489635 3.58158435e-39
-6.221230867 5.6087353 0.6124407557 0.7790152296 -0.5909282716 0.209616435 3.030571373e-39
-4.516436973 5.834052576 -3.87495084 0.7443897969 0.5842684327 0.3232866047 3.58158435e-39
-4.161160566 6.420300707 -5.574762644 0.9464936597 0.08736765259 0.3106712818 3.58158435e-39
-5.08948705 7.755544592 -5.240534605 0.7334035045 0.5083018267 0.4513851488 3.857090839e-39
-5.119000037 7.837425771 -5.288558188 0.6923290713 0.5316116479 0.4879236752 3.857090839e-39
-1.718034852 7.136345999 -1.663095068 0.6451603289 -0.4619964988 0.6085453024 2.846900381e-39
-5.007213561 6.030079229 -1.68440934 0.9089547994 -0.4066723662 -0.09175379646 1.285696946e-39
-4.968796786 5.981171726 -1.389463226 0.7971544607 -0.5957616654 -0.09804490743 1.010190458e-39
-4.759679531 5.725790228 -3.493370242 0.8958175275 0.3922811722 0.2088694314 2.3877229e-39
-5.347112717 5.297798438 -0.9951309904 0.817813577 -0.2995443391 0.4913798349 1.010190458e-39
-5.661818382 5.315950175 -0.4682878861 0.7786647113 -0.397953351 0.485092154 9.183549616e-41
-6.321476285 3.807255764 2.538290293 0.9625606197 -0.2461681191 -0.113482644 3.857090839e-39
-4.97923626 6.656946342 -2.667360481 -0.8273905898 0.4725572158 0.3035036897 9.183549616e-41
-4.300544588 6.987043412 -5.583879897 0.875911921 0.1814892423 0.4470346313 3.58158435e-39
0.6428967192 8.626379137 -2.869534792 0.7096430121 -0.250423546 0.6585551176 3.214242366e-39
-3.635709018 7.455175149 -6.797731429 0.8601907757 0.119626886 0.4957431166 4.499939312e-39
0.6287267592 8.424361828 -2.827797743 0.6963003181 -0.1070905959 0.7097164725 2.295887404e-39
1.044148226 8.606546404 -3.321683257 0.6617882372 -0.05079550586 0.7479680111 2.295887404e-39
0.5196491803 8.832678652 -2.544216353 0.7388664262 -0.4297265941 0.519048609 4.224432823e-39
-2.256673554 2.181117444 -2.319423536 0.04961013777 -0.5341014033 0.8439635805 1.469367939e-39
0.2433443814 2.603732625 -1.723738899 0.05159290664 -0.8363847327 0.5457094015 2.295887404e-39
-0.5544127199 2.402293555 -1.995873892 -0.1053938115 -0.7529069932 0.6496331304 7.346839693e-40
5.234818143 1.672935211 -2.069997755 -0.4787001435 -0.5198882325 0.7075043451 3.673419846e-39
0.1372818184 -3.646810287 -3.877760181 0.702615913 0.2990287982 0.6456877393 4.591774808e-40
0.01316471217 -3.62480778 -3.708599985 0.7801318155 0.261658966 0.5682683662 4.591774808e-40
0.1357513529 -4.008713591 -3.699591519 0.7104095456 0.2056252659 0.673079882 1.836709923e-40
-0.07504296736 -3.685012325 -3.497408409 0.8349517208 0.2101651145 0.5086120807 2.204051908e-39
-0.1215419733 -3.581164903 -3.496300124 0.8554519988 0.1950792384 0.4797353109 2.112216412e-39
-0.03051180498 -3.87072962 -3.511820248 0.8165847735 0.1346939484 0.5612903419 1.836709923e-40
-0.0865472275 -3.804401692 -3.426926483 0.8481596613 0.1416437334 0.510452977 6.428484731e-40
-0.2177701739 -3.912741812 -3.059439265 0.8803073805 -0.01507061517 0.4741643094 2.112216412e-39
-0.1719685183 -3.969953182 -3.155372252 0.8762825532 -0.005421613057 0.4817670527 6.428484731e-40
-0.1975980129 -3.857818546 -3.126207772 0.8851134523 0.04066090463 0.4635955861 2.112216412e-39
-0.3896440967 -3.631934431 -2.678394795 0.8213061118 0.1252941093 0.5565587631 1.285696946e-39
-0.4032407086 -3.801573073 -2.567383403 0.8120418639 0.05476512383 0.5810239173 2.295887404e-39
-0.2989665564 -3.704023105 -2.849919921 0.8883012622 0.1399104254 0.4374310693 2.295887404e-39
-0.2914999923 -3.935917211 -2.787721697 0.8826665976 0.01996931736 0.4695752377 2.204051908e-39
-0.4930267934 -3.840598051 -2.360445431 0.7477169419 0.07215963773 0.6600851169 2.112216412e-39
-0.4800902522 -3.513448438 -2.522883311 0.7740453081 0.2086621233 0.5977574586 1.285696946e-39
-0.64618403 -3.489266227 -2.318748061 0.6155634963 0.2332888483 0.7527668266 1.285696946e-39
-0.4369232347 -3.801608482 -2.471804555 0.8038475239 0.08968894864 0.5880349062 2.112216412e-39
-6.302866886 4.03301879 1.849928449 0.9725454789 -0.1907211296 -0.1333444496 3.857090839e-39
5.34167936 0.4296002182 -2.675770858 -0.4600288545 -0.378511029 0.8031829517 3.673419846e-39
4.472154192 -0.3953918862 -3.477466699 -0.4016138746 -0.3763624752 0.8348997443 1.653038931e-39
0.567119442 1.355219638 -2.962802854 0.07378030656 -0.4825726265 0.8727428754 9.183549616e-41
4.419850591 -0.5845968205 -3.611295491 -0.4298079487 -0.3363348276 0.8379403386 5.234623281e-39
3.439945924 0.02699146869 -3.685868149 -0.2593718837 -0.6236166045 0.7374473246 4.132597327e-39
3.708243503 -0.4944161287 -4.008481305 -0.3947584236 -0.3921290387 0.8309034866 4.683610304e-39
5.575862102 2.127347463 -1.279509032 -0.6125516965 -0.6603800385 0.4343715275 1.377532442e-39
-3.065089533 -3.357420638 -1.378255106 0.5488387764 0.6022098374 0.5797579747 3.857090839e-39
-3.215263545 -3.352201413 -1.283679617 0.5159695054 0.6711144568 0.5323352846 2.938735877e-39
-2.975134218 -3.510498538 -1.264939762 0.682186313 0.5180640073 0.5159762772 3.489748854e-39
-3.292697602 -3.495607158 -1.005095183 0.611994296 0.6836680816 0.3975687813 1.19386145e-39
-3.171549655 -3.591728078 -0.8600305837 0.6777336879 0.6643183358 0.3152113529 1.19386145e-39
-6.305114033 4.147402564 1.70644954 0.9785663633 -0.1544784671 -0.1361773693 3.857090839e-39
-1.406570889 0.07709049223 -3.177296057 0.1309448733 -0.1416923448 0.9812118627 4.316268319e-39
-1.711991287 0.2561748396 -3.119633598 0.09410354846 -0.1510511583 0.9840366201 4.316268319e-39
-6.310880119 3.975431524 1.924783632 0.9705063424 -0.203720362 -0.1289009445 3.857090839e-39
-6.276945178 4.13756797 2.089832815 0.9780035601 -0.1695837777 -0.1214511374 3.857090839e-39
-5.340656912 3.92549933 -1.303293518 0.529301283 -0.1772033309 0.8297223218 2.295887404e-39
3.411589941 1.060742202 -2.962482201 -0.138906244 -0.3749140631 0.9165939672 3.673419846e-39
4.874869973 0.1805759879 -3.028568945 -0.3852086607 -0.3789142947 0.8414500846 3.306077862e-39
-0.2955899268 6.987300087 -2.21698029 0.1040408705 0.3820427801 0.9182694656 1.836709923e-39
1.553194195 1.106575164 -3.156263779 0.03816170854 -0.4450877592 0.8946734436 3.673419846e-40
-1.133613296 -0.2760399184 -3.249301625 0.2132867713 -0.08851859037 0.9729713317 4.316268319e-39
-1.093071915 0.1024413575 -3.203392134 0.1496108491 -0.1942466117 0.9694765844 2.295887404e-39
-0.4443737848 -0.07953614325 -3.309567166 0.2543839062 -0.2759440633 0.9269000497 3.306077862e-39
-1.212994799 6.040673177 -1.839274848 0.0420815561 0.5938907257 0.8034444278 2.846900381e-39
-4.28180184 4.321753208 -1.691094742 0.06183947006 0.1215439515 0.9906578359 5.785636258e-39
-3.669798378 4.131267725 -1.623763087 -0.2405685048 -0.04462198372 0.969605937 5.785636258e-39
-6.403609824 3.528373092 2.615928576 0.9599490548 -0.254064932 -0.1181051333 0
-6.363054074 3.739755626 2.337611052 0.9659011019 -0.2413564534 -0.09371298594 3.857090839e-39
-6.286274842 3.993248216 2.525211306 0.9644738248 -0.233766588 -0.1230586188 3.857090839e-39
-4.493900845 7.668802041 -5.238504671 0.5625922007 0.6980667125 0.4429366554 2.479558396e-39
-4.651819768 7.64439538 -5.286834104 0.7119380067 0.4982371733 0.4948777563 2.479558396e-39
-5.016929934 7.495938443 -4.9075092 0.8176924004 0.4583465528 0.3482780151 7.438675189e-39
-5.022375567 7.353442995 -4.539341372 0.9599791456 0.219837261 0.1735269968 6.70399122e-39
-6.334087205 3.906649376 1.853983061 0.9655778066 -0.2225726393 -0.134613965 3.857090839e-39
-6.386556076 4.64637321 1.369772155 0.9932558529 -0.05618334475 -0.1014211146 3.030571373e-39
-6.549654037 3.572812983 1.531985759 0.9595075952 -0.2523364152 -0.1251858954 2.112216412e-39
-1.177929462 7.427700758 -1.999573061 0.586816345 -0.3766871419 0.7167659132 3.489748854e-39
-3.051987776 6.175778148 -0.6399032779 0.4497985274 -0.8797434525 0.154054349 4.591774808e-40
-2.927723096 6.224226057 -0.734372609 0.5155726203 -0.823007479 0.2384188805 2.755064885e-40
-2.588811179 6.417280546 -1.149012044 0.6425557044 -0.5538802887 0.5294702943 2.755064885e-40
-4.49218354 7.468872228 -5.346350163 0.7902079331 0.3729632436 0.4862816482 2.479558396e-39
-4.251309517 6.851575095 -5.644272737 0.8922994609 0.1533336587 0.4246062425 3.58158435e-39
-6.344417032 3.673351702 2.931385993 0.9422142304 -0.2583924593 -0.21322683 1.469367939e-39
-6.453528792 3.448175093 2.382909391 0.9625041516 -0.2544509958 -0.09402366173 0
-3.755029508 7.674234897 -6.67050977 0.8177333418 0.1866518661 0.5444935837 4.499939312e-39
-6.183505374 5.621164434 0.4468962855 0.7469752748 -0.5944999853 0.2976536684 3.030571373e-39
-5.990277228 5.615559509 0.1850322429 0.6976033495 -0.5977632219 0.39500468 3.030571373e-39
-4.601031505 5.890081444 -3.32032288 0.8975745511 0.3598503727 0.2546912534 2.3877229e-39
-4.586563815 6.496448522 -4.525438066 0.896104285 0.1960516704 0.3981970026 3.58158435e-39
-5.109762537 7.653866578 -4.97905638 0.7819897236 0.497206746 0.3758690251 7.438675189e-39
-5.32330219 7.811782461 -5.311859025 -0.01098979129 0.8320341391 0.5546155568 7.438675189e-39
-1.965711533 6.920532417 -1.613658767 0.6509707473 -0.3076307605 0.6939743521 2.846900381e-39
-6.379601787 3.570651671 2.882409985 0.9480354143 -0.2556589586 -0.1893867738 9.183549616e-40
-4.982149663 5.971999104 -1.882477404 0.9495589309 -0.2993093939 -0.09355064689 6.428484731e-39
-5.133555067 5.598801417 -1.229535127 0.7415657584 -0.5059013757 0.4406177755 1.010190458e-39
-5.069973809 5.750075088 -1.206916392 0.8074027142 -0.5648380802 0.1704664198 1.010190458e-39
-5.239522131 5.642662268 -0.9256939405 0.7596410667 -0.5687494082 0.3153879522 9.183549616e-41
-6.338519005 3.736481905 2.92022343 0.9445034289 -0.2573046046 -0.2042244187 3.673419846e-40
-6.330634285 3.741254312 2.871907362 0.9460579673 -0.258109768 -0.1958409308 3.673419846e-40
-4.188561398 6.947351848 -5.689688067 0.8981389952 0.1233687022 0.4220503626 3.58158435e-39
0.5667353759 8.373566752 -2.874135657 0.6722548846 -0.1785872094 0.7184566645 2.295887404e-39
0.4670947418 8.363048299 -2.707753667 0.6862006934 -0.2002740719 0.6992988664 2.295887404e-39
0.6312420236 8.543608518 -2.80415634 0.7166601541 -0.1558200933 0.6797928523 2.295887404e-39
0.3738445761 8.530712069 -2.598364956 0.703943824 -0.392041801 0.5922552818 1.836709923e-39
0.4085146525 8.603130835 -2.493657018 0.731305181 -0.3134399482 0.6057624378 1.836709923e-39
-2.086218289 2.158814778 -2.332963519 0.0320197961 -0.5313154555 0.8465687328 1.469367939e-39
3.586073995 2.427955569 -2.317691414 -0.1928826505 -0.6603714929 0.725744979 3.673419846e-39
-1.726511354 1.44607404 -2.740398613 0.06738711628 -0.4089644408 0.9100588238 3.673419846e-40
5.442684665 1.519589284 -2.070531087 -0.497401074 -0.5099333007 0.7018263321 5.326458777e-39
0.189043867 -3.521124947 -4.024599918 0.6573551576 0.3238006795 0.6804684539 2.3877229e-39
0.09525842342 -3.763565262 -3.770637444 0.7361704877 0.2419518575 0.632069863 6.428484731e-40
0.1379985373 -3.744514172 -3.839828086 0.7068659946 0.2634990362 0.656436382 5.785636258e-39
0.02748801708 -3.533090201 -3.792141586 0.764361 0.2847782202 0.578492547 2.3877229e-39
0.0384643796 -3.535727749 -3.816895199 0.7571913512 0.2841136337 0.5881672388 2.3877229e-39
-0.09452362823 -3.832654912 -3.393701118 0.8522647864 0.1307968212 0.5064947438 6.428484731e-40
-0.02912563603 -3.827116917 -3.5330247 0.8141966917 0.1698492025 0.555189153 1.377532442e-39
-0.1455103241 -3.53391249 -3.432310251 0.8606316271 0.2273451383 0.4556614867 2.295887404e-39
-0.1643155959 -3.665105231 -3.324481495 0.8780904989 0.1385584577 0.457994137 2.295887404e-39
-0.2156409661 -3.549338411 -3.204918236 0.8864098396 0.2100004867 0.4125256257 2.295887404e-39
-0.2678738034 -3.688031924 -2.948089643 0.8956374602 0.1594841687 0.4152087907 2.295887404e-39
-0.3063464473 -3.802915723 -2.775157838 0.8858726682 0.1008070742 0.4528438468 2.112216412e-39
-0.2916015951 -3.662803581 -2.904274894 0.8861491425 0.145882315 0.4398386606 2.295887404e-39
-0.4461966331 -3.379221934 -2.705100584 0.7959531331 0.2327815975 0.5588124352 2.755064885e-39
-0.4579941834 -3.540844575 -2.567382399 0.7832890703 0.185519382 0.5933302548 1.285696946e-39
-0.5450945613 -3.802823477 -2.334801674 0.693962051 0.06240427172 0.717302153 9.183549616e-41
-0.5298743746 -3.449730689 -2.477948349 0.7316617315 0.2352113469 0.6398021045 4.591774808e-40
-0.6010209574 -3.350618609 -2.435303336 0.6742373977 0.2752987743 0.6852842596 3.306077862e-39
-0.5801208928 -3.620399023 -2.341153486 0.6684747214 0.175849074 0.7226469747 1.285696946e-39
5.234580865 0.5925501917 -2.694747606 -0.4309188454 -0.3936305977 0.8120122544 2.479558396e-39
-1.87332378 2.595999941 -2.075532556 -0.01230925083 -0.6330239352 0.7740343531 2.755064885e-40
-1.053766054 -5.897068185 -3.760499503 0.435813437 0.01870732989 0.8998425884 1.102025954e-39
0.4645323466 1.506456376 -2.866444657 0.07640037559 -0.5332455748 0.8425034953 9.183549616e-41
1.559589663 1.593052707 -2.920705346 0.05232540646 -0.5179656645 0.8537995211 3.673419846e-40
2.106612389 1.666752831 -2.886073533 0.01284694357 -0.5043386182 0.8634103973 3.673419846e-40
2.612941694 1.68996446 -2.879389857 -0.03397504211 -0.4416832837 0.8965275084 3.673419846e-39
3.11726701 -0.07318880919 -3.925863091 -0.2470675602 -0.6278185875 0.7381066602 1.19386145e-39
4.452293966 -0.2543350482 -3.416353152 -0.3789863484 -0.4009611509 0.8340260806 1.653038931e-39
3.645096178 0.3293579283 -3.298696108 -0.1769069573 -0.5496025877 0.8164808167 1.653038931e-39
-3.817325277 -3.241875138 -1.172383896 0.4714829507 0.7775073929 0.4161563182 1.19386145e-39
-3.779763091 -3.218370827 -1.17173224 0.4232737138 0.809350502 0.4071745672 1.928545419e-39
-4.006425092 -3.227939305 -0.8648212462 0.4572892942 0.8381688292 0.2972532844 5.785636258e-39
-1.389549312 0.05518215384 -3.158186276 0.135997125 -0.1302621344 0.9821082213 4.316268319e-39
-1.710446512 0.06620215715 -3.13894986 0.1162035374 -0.09907024907 0.9882721405 4.316268319e-39
-1.83007092 0.09081270698 -3.110061659 0.1056272411 -0.09448165284 0.9899071185 4.316268319e-39
-2.005503481 0.2719080799 -3.057690809 0.08674749203 -0.1331902137 0.9872868072 4.316268319e-39
-4.665564639 4.764927633 -1.753945387 0.4965754125 0.420381105 0.7594027826 5.785636258e-39
0.3992824538 -5.920166212 4.390242493 0.01981963529 -0.5856841 0.8102970548 2.663229389e-39
-0.8643485442 -0.2104372928 -3.278560997 0.2279575941 -0.1639179018 0.9597740655 2.295887404e-39
-0.5963513413 -0.1285298643 -3.314312114 0.280206407 -0.2726505306 0.9204053768 2.295887404e-39
-0.7506711314 0.1670733946 -3.217864561 0.1682501286 -0.2429815153 0.9553281517 2.295887404e-39
-1.077347594 0.1336361757 -3.191006472 0.1447847371 -0.1965714748 0.9697407051 2.295887404e-39
-3.142847919 -0.425542852 -2.971463326 0.2527910046 -0.03168371495 0.9670019908 4.316268319e-39
-2.989909033 -0.2117330321 -3.00424505 0.2241139435 -0.05638006229 0.9729307421 4.316268319e-39
-2.85183351 -0.415154367 -3.023057835 0.1807342161 -0.02196616013 0.9832866474 4.316268319e-39
-3.272467718 -0.02824335882 -2.893589791 0.2979702479 -0.1036867758 0.9489271752 4.316268319e-39
-4.155022347 2.472933708 -1.76800346 0.2136502088 -0.09505342294 0.9722748763 4.408103816e-39
-3.88225767 6.470430086 -6.385803022 0.9637716695 -0.2156634526 0.156950452 4.499939312e-39
-4.972965213 -0.4283665966 -2.19685901 0.6319503037 -0.006908377222 0.774978121 3.58158435e-39
-0.7906646964 0.2122328325 -3.194317474 0.1536295584 -0.2333810829 0.9601724996 2.295887404e-39
-4.192159111 6.76585175 -5.404299092 0.9347942315 0.1054770481 0.3391671227 3.58158435e-39
-4.220227358 6.734292062 -5.568550614 0.9146267894 0.1317542047 0.3822285516 3.58158435e-39
-4.099319505 6.440577832 -5.724673932 0.9628125003 0.009649751774 0.2699980956 3.58158435e-39
-4.15633322 6.466638787 -5.927920802 0.8982067398 0.1350325098 0.4183191052 3.58158435e-39
-3.985276926 6.529624086 -6.102187646 0.9438937997 -0.02937630082 0.3289400066 3.58158435e-39
-6.362820173 4.515417204 0.7565681361 0.985937867 -0.08398216922 0.1444767027 3.030571373e-39
-6.251955118 4.702847919 0.2742175266 0.9243990311 -0.1113005585 0.3648268316 1.469367939e-39
-6.239332665 5.094631047 0.3016613928 0.8973249517 -0.2136995058 0.386187069 1.469367939e-39
-6.246690763 4.252023433 2.305440898 0.9672268615 -0.2080043487 -0.1456241368 3.857090839e-39
-1.680400105 7.466653893 -1.590766534 0.681467252 -0.6153481509 0.3961679412 2.663229389e-39
-2.002805479 7.182456459 -1.34147971 0.6772444927 -0.6935444255 0.2456339288 1.102025954e-39
