# .PCD v0.7 - Point Cloud Data file format
VERSION 0.7
FIELDS x y z normal_x normal_y normal_z rgb
SIZE 4 4 4 4 4 4 4
TYPE F F F F F F F
COUNT 1 1 1 1 1 1 1
WIDTH 508
HEIGHT 1
VIEWPOINT 0 0 0 1 0 0 0
POINTS 508
DATA ascii
0.8843533333 2.81423464 0.5528878319 0.2391355523 0.9664122157 0.09413616157 2.755064885e-39
0.7078158546 2.883578978 0.1759953137 0.1867068717 0.9815833123 0.04043198182 2.755064885e-39
0.4964996226 2.92786922 0.280488175 0.1334320496 0.987750782 0.08089672908 2.755064885e-39
0.4054284841 2.970295878 0.08520035908 -0.1152652173 -0.9925098048 -0.04047489486 2.755064885e-39
-0.06517110027 2.969404852 -0.1916477931 0.01536027934 -0.9966997845 0.07970948072 2.755064885e-39
0.1485804472 -2.971752263 -0.1085905635 -0.008570505952 0.9999475253 0.005611873094 6.428484731e-40
0.06378746296 -2.965344748 -0.1007956319 -0.01284767437 -0.999915096 -0.002176691341 2.020380915e-39
0.3354630012 -2.955137968 0.3651994276 0.05557774853 -0.9898278298 0.1309655724 6.428484731e-40
0.3252294055 -2.933135007 0.359027729 0.05803348699 -0.9905696337 0.12411251 6.428484731e-40
0.665594177 -2.911125345 0.4917684224 0.2019209662 -0.9664753762 0.1585978267 6.428484731e-40
0.7879141519 -2.853967365 0.4754778591 0.2513668948 -0.95211619 0.1740386306 3.948926335e-39
0.7966527456 -2.799170093 0.5977746693 -0.2773126469 0.9378985331 -0.2084323333 3.673419846e-40
1.274482487 -2.543649276 1.035508709 -0.3322271491 0.8995818837 -0.2835093579 6.428484731e-40
1.385223701 -2.528184264 1.050793522 0.4005548505 -0.8702777732 0.2866573027 1.377532442e-39
1.549761371 -2.315568574 1.113119175 0.5460171054 -0.7855592175 0.2911392045 3.214242366e-39
1.415464289 -2.400364937 1.239156256 0.4571098782 -0.8217863822 0.340173046 2.295887404e-39
1.899951322 -1.921567559 1.149924471 0.6408233184 -0.6737546077 0.3679676659 3.857090839e-39
1.732396987 -1.953199011 1.579733621 0.6197174761 -0.6381156303 0.4569011842 1.377532442e-39
1.69616901 -1.666491974 1.80377314 0.5545637596 -0.5726493013 0.6037647011 2.571393892e-39
1.703455494 -1.800532523 1.749395697 0.5557103823 -0.5969938562 0.5786054844 1.19386145e-39
1.837655157 -1.415305095 1.892225198 -0.6048499203 0.4167078231 -0.6786097289 1.836709923e-39
2.131850203 -1.302148276 1.734056582 -0.6608124453 0.3893856175 -0.6416430106 1.010190458e-39
2.066221126 -0.8644530913 1.829638642 0.7166649277 -0.2750285855 0.6408983216 1.836709923e-39
1.980012871 -0.9189963772 2.018663535 0.6961583017 -0.331320359 0.6368598265 1.836709923e-39
2.096300622 -0.4722294552 2.032004189 0.7486577193 -0.2542669123 0.6122580801 3.122406869e-39
2.339746371 -0.1683214659 1.990527951 0.7372441118 -0.1524124871 0.6582108731 2.846900381e-39
2.342811175 -0.3376665649 1.934343778 0.7504446176 -0.2757130258 0.600678952 5.510129769e-39
2.256700951 0.022357776 2.067169398 0.7272524385 -0.006902237005 0.6863353771 3.122406869e-39
2.408355536 0.2954231896 1.824408829 0.7902444438 0.1385847077 0.5969154026 2.846900381e-39
2.298963564 0.3806135212 1.873235832 0.7934669108 0.1810090862 0.5810731212 3.030571373e-39
2.310322891 0.4672691913 1.748881308 0.8187208789 0.2388025066 0.5221776377 2.846900381e-39
2.236478169 0.7814768616 1.992796942 0.7993808851 0.2708126564 0.5363307801 4.7754458e-39
2.274561987 0.8382762959 1.675002477 0.8211586975 0.2807338103 0.4968771692 5.510129769e-40
1.996093633 1.520757828 1.651055707 0.7086009575 0.4924605599 0.5053387774 2.295887404e-39
1.911092598 1.575111465 1.830288263 0.6611895657 0.4689790639 0.5855655351 7.346839693e-40
1.982042119 1.530403609 1.572442306 0.7040647027 0.5222400966 0.4812049209 3.948926335e-39
1.716163033 1.764639726 1.67124935 -0.5305846765 -0.6677625791 -0.5220852794 2.3877229e-39
1.872615974 1.9041146 1.465825113 -0.5912612818 -0.6639315422 -0.4578263906 2.295887404e-39
1.450784029 2.231172376 1.394152346 0.4543582089 0.7298493447 0.510762716 8.265194654e-40
1.599686276 2.335311549 1.124425221 0.4605636572 0.8245205804 0.3287049288 8.265194654e-40
1.252515824 2.403045779 1.194968945 0.4578824657 0.7924036436 0.4030386001 1.653038931e-39
1.423207511 2.388810476 1.146965991 0.4642936638 0.8171788817 0.3415407282 8.265194654e-40
1.183000246 2.595192663 0.873564374 -0.4354415834 -0.8565796565 -0.2768788897 2.755064885e-40
1.015216281 2.772838322 0.7605590411 0.3483563236 0.9215971321 0.1711916995 3.58158435e-39
0.6612771059 2.882424476 0.5044816252 0.1538607923 0.9834068529 0.09611356947 2.755064885e-39
0.8875652233 2.815112817 0.3523236397 -0.2283145617 -0.9719483181 -0.05647059231 2.755064885e-39
0.4839710943 2.913259234 0.4109641792 0.1185074496 0.9871519009 0.1071779313 2.755064885e-39
0.2741755568 2.990635812 0.2463146291 0.09296538997 0.9913018037 0.09315669731 2.755064885e-39
0.1538611664 2.976948548 -0.08004649929 0.03961764162 0.9982784296 -0.04325065805 2.755064885e-39
0.04715872284 2.969210686 0.06928535889 0.006465899735 0.9999686546 0.004569688556 2.755064885e-39
-0.2357888698 -2.943860667 -0.01260787764 0.06059811074 0.9980399213 -0.01562640549 7.346839693e-40
0.3517959647 -2.996993607 -0.07116119507 0.07013179632 -0.9975375728 -0.0005674802246 6.428484731e-40
0.4709229937 -2.917991926 0.440717658 0.1172464512 -0.9829554925 0.1416042708 6.428484731e-40
0.4267145982 -2.893944187 0.6261976504 0.1217135785 -0.9797724418 0.1588451044 6.428484731e-40
0.6514698375 -2.860999019 0.649373333 -0.2248231298 0.954911476 -0.1939036704 6.428484731e-40
0.8817807819 -2.697733383 0.6945221602 -0.3254700182 0.9145057715 -0.240309095 3.673419846e-40
0.8821593777 -2.634095919 0.8870629168 0.3401563028 -0.9003501214 0.2714099272 6.428484731e-40
1.131634688 -2.595678156 0.8396019002 -0.3290022052 0.9060605326 -0.2661049798 3.948926335e-39
1.241450268 -2.573016464 0.9364883047 0.3218282254 -0.9088140914 0.2654873642 3.673419846e-40
1.360702387 -2.284953041 1.450297419 0.4474770739 -0.7719291099 0.4515414905 2.571393892e-39
1.243303911 -2.342171105 1.521777716 0.3744064626 -0.7976695254 0.4728034782 6.428484731e-40
1.373943839 -2.308424877 1.387826269 0.4569731342 -0.7902318642 0.408300325 2.571393892e-39
1.67000758 -1.801568606 1.731076146 0.5361897856 -0.6243364869 0.5680708274 2.571393892e-39
1.768742055 -1.897178864 1.552430983 -0.6312339693 0.6326746247 -0.4486273457 1.377532442e-39
1.792122198 -1.78594224 1.629998741 -0.6224804728 0.609829985 -0.4905358808 2.295887404e-39
1.7801317 -1.608843839 1.834802544 0.5912103649 -0.4990734115 0.6335582328 3.765255342e-39
1.990315895 -1.409558516 1.804990661 -0.6155141095 0.4233258856 -0.6647838563 1.010190458e-39
2.03190879 -0.8704236581 1.996912528 0.7227455738 -0.297434965 0.6238359377 1.836709923e-39
2.088469245 -0.7008566226 1.905491537 0.7467300301 -0.2720573179 0.6069424008 1.836709923e-39
2.019897061 -0.7917466558 2.00401577 0.7324483059 -0.2963109334 0.6129594684 1.836709923e-39
2.027192816 -0.5389134932 2.143014945 0.7466595536 -0.2389626273 0.6208030072 1.836709923e-39
2.1681804 -0.3630359885 1.984900768 0.7446797692 -0.2425784233 0.6217778944 3.122406869e-39
2.195474385 -0.1083451636 2.080493413 0.7356251202 -0.1062448649 0.6690050158 3.122406869e-39
2.013267844 0.344471628 2.285229197 -0.6484944912 -0.1004841991 -0.7545580299 1.19386145e-39
2.097437811 0.4919516857 2.206606375 0.6822879715 0.117860746 0.7215205946 3.673419846e-40
2.221941996 0.6727422646 2.110479448 0.7429167201 0.1184514582 0.6588201568 3.673419846e-40
2.181111628 0.942971567 1.917870955 0.7668619503 0.3920431149 0.508158386 3.122406869e-39
1.948336477 0.8752434655 2.084367654 0.6496439059 0.3298269059 0.6849649682 9.183549616e-40
1.975859317 1.209244338 1.944112441 0.6755532841 0.4009844406 0.6187400413 1.928545419e-39
1.941449286 1.623775324 1.649179706 0.6682274722 0.5554605268 0.4949097378 2.295887404e-39
1.650793664 1.728039937 1.887872371 -0.4356199901 -0.6459141582 -0.6269211469 5.050952289e-39
1.840955869 1.814612884 1.72801739 0.5255591017 0.6652863802 0.5302656532 7.346839693e-40
1.591505418 1.993194447 1.517556924 0.4809742861 0.7004573141 0.527279136 9.183549616e-41
1.521721002 2.249876214 1.338578706 0.4711304275 0.7459315721 0.4707676816 8.265194654e-40
1.499624639 2.257245589 1.249513637 0.4846897696 0.7685792846 0.4175664144 3.489748854e-39
1.171700106 2.231864476 1.515744713 -0.4213306862 -0.7000861695 -0.5765065551 9.183549616e-41
1.069216958 2.601381566 1.179451527 -0.449918635 -0.8223047929 -0.348407878 2.938735877e-39
0.9374555617 2.605259817 1.215887507 -0.3614128937 -0.8487886274 -0.3859256227 2.663229389e-39
0.7661016244 2.863438 0.6772355553 -0.1726800821 -0.9781931907 -0.1154108788 2.755064885e-39
0.8206680391 2.861385117 0.5862346435 0.2040970461 0.9749565398 0.08834105041 2.755064885e-39
0.4746531752 2.930293981 0.4483504066 0.117174562 0.986408173 0.1151913116 2.755064885e-39
0.4269011147 2.925455398 0.3220544787 0.1141417386 0.9892778967 0.09110931141 2.755064885e-39
0.4279111535 2.962681476 0.2237840144 0.1185825171 0.9894779248 0.08289525289 2.755064885e-39
0.3307882572 2.950025209 -0.104845558 -0.0911776418 -0.9942745485 0.05572037123 2.755064885e-39
0.03179558825 3.020814414 -0.2174022051 -0.0167137476 -0.9981431144 0.05857451465 2.755064885e-39
-0.1455854675 -2.981311084 0.1543016725 -0.04484522336 -0.9963833996 0.07217358842 7.346839693e-40
-0.06052934807 -2.980315896 0.2754292023 -0.02689520743 -0.9935299459 0.1103399036 1.285696946e-39
0.2195854559 -3.011412581 0.1547103178 0.01636741267 -0.9957685815 0.09042698602 6.428484731e-40
0.3783622828 -2.908380429 0.6494561249 0.09909857248 -0.9825100857 0.1576496254 6.428484731e-40
0.6362849768 -2.781958546 0.8692450047 -0.2738376263 0.9291229938 -0.2484822264 6.428484731e-40
0.6284725563 -2.767314034 0.9626610701 -0.2886368957 0.9155024274 -0.2802571101 6.428484731e-40
0.7191468374 -2.648751841 1.064772057 0.3190037118 -0.900988576 0.294034382 7.346839693e-40
0.7713912448 -2.678161335 0.9276214463 -0.3237390085 0.905266937 -0.2751087551 6.428484731e-40
0.9324376115 -2.554328307 1.104112211 0.3224117506 -0.8998766897 0.2937219883 1.102025954e-39
1.369385063 -2.227678855 1.507516385 0.4545568674 -0.7388213836 0.4975148415 2.571393892e-39
1.210554546 -2.41051298 1.350851748 -0.3639795584 0.8507361695 -0.3791659941 6.428484731e-40
1.323582093 -2.035395865 1.646661677 0.432041332 -0.6781906863 0.5944726069 2.571393892e-39
1.45001938 -1.897794251 1.730320086 -0.4418880105 0.6669878972 -0.5998850983 2.571393892e-39
1.353321029 -1.931658911 1.818200879 -0.3877914034 0.6428090509 -0.6606166449 1.561203435e-39
1.707367294 -1.658379442 1.924673985 -0.5374408557 0.4729580576 -0.6981890878 4.591774808e-40
1.964014803 -1.279354331 1.849528451 -0.6286052582 0.3723403187 -0.682801667 1.836709923e-39
1.726701583 -1.137576621 2.075007269 -0.6110578469 0.3655430677 -0.702130026 2.020380915e-39
1.985055985 -0.9384846803 1.945075065 -0.6927809315 0.3106361278 -0.6508147026 1.836709923e-39
1.991104633 -0.6018623037 2.191258988 0.7496395222 -0.2394263924 0.6170215469 2.020380915e-39
1.968935924 -0.4605455852 2.227708368 0.7031944295 -0.2137553749 0.6781048843 2.020380915e-39
2.024288584 -0.2522273875 2.245905847 0.7001956279 -0.1190709324 0.7039518419 5.418294273e-39
1.993553497 -0.4359158598 2.1850091 0.7079876165 -0.2241460917 0.6697104333 2.020380915e-39
2.020937686 0.001924087383 2.283891222 0.6772605017 -0.03995715058 0.7346574978 1.19386145e-39
1.905755742 0.3477582694 2.367739551 -0.5711537001 -0.1257710272 -0.811150479 6.428484731e-40
1.879791725 0.5533210536 2.324774174 0.5423756741 0.2260606556 0.809150918 6.428484731e-40
1.958128878 0.4777633972 2.306009268 -0.5883084884 -0.165370477 -0.7915464154 6.428484731e-40
2.0512691 0.8893519401 2.193226094 0.5290577105 0.3360079087 0.7792282235 9.183549616e-40
2.067000099 0.9405512449 2.099093548 0.6355383751 0.3849143634 0.6692771523 9.183549616e-40
1.852237407 1.521405502 1.863078134 0.6197837344 0.5024459032 0.6028401422 2.3877229e-39
1.737472321 1.648070419 1.871596326 0.5179911165 0.6009874121 0.6086865644 2.3877229e-39
1.763908562 1.499811254 2.017691765 0.507634081 0.4691400949 0.7226445953 2.3877229e-39
1.763562791 1.657001224 1.876721775 0.5069965004 0.5975864204 0.6211642446 2.3877229e-39
1.406759213 1.966752559 1.72201559 0.3986407276 0.7071949126 0.5839185953 3.673419846e-39
1.645781447 1.967227014 1.498477684 0.5088488266 0.6918877429 0.5122150162 2.204051908e-39
1.389322979 2.247740552 1.420236563 0.4407312008 0.7242833318 0.5302543388 1.377532442e-39
0.9975460091 2.354772864 1.542297245 0.4123723362 0.7055587612 0.5763123206 3.857090839e-39
0.8732939196 2.52487434 1.462907687 -0.3352181954 -0.785641621 -0.5199961584 2.663229389e-39
0.7455443446 2.800819444 0.9581749007 -0.1790959219 -0.9534982511 -0.2424164512 2.755064885e-40
0.9655009398 2.732402407 1.078099356 -0.3787830044 -0.8756548438 -0.2995864317 1.377532442e-39
0.5595373086 2.827158036 0.9188940892 0.09285320175 0.9705825285 0.2221437336 2.755064885e-39
0.4558745356 2.894091207 0.4067301191 0.1149822601 0.988430572 0.09891453019 2.755064885e-39
0.636363807 2.898760645 0.5271840318 0.1401398945 0.984689143 0.1036730518 2.755064885e-39
0.402847998 2.941551393 0.3012679815 0.1093621905 0.989700494 0.09237339198 2.755064885e-39
0.1156271569 2.996805241 0.00990546808 0.03562627981 0.999364206 -0.001397087343 2.755064885e-39
0.1864301004 3.008087521 -0.07292377423 0.05134567537 0.9985606086 -0.01550266035 2.755064885e-39
0.04159671523 -3.012099629 0.2190350582 -0.01362076497 -0.994707116 0.1018441367 2.020380915e-39
0.3454779569 -2.950498885 0.09512097773 -0.07223411358 0.9955096626 -0.06117797439 6.428484731e-40
0.09845362134 -3.011870006 0.1237904255 -0.01012717868 -0.9971342473 0.07497154898 2.020380915e-39
0.1978282184 -2.937364113 0.7152212308 0.02290504761 -0.9880151293 0.1526481673 7.346839693e-40
0.2959743895 -2.91689438 0.8048166119 0.07716749103 -0.9827680079 0.1679649395 7.346839693e-40
0.7011979809 -2.720807924 0.9051792879 -0.3033034488 0.9157039488 -0.2636158117 6.428484731e-40
0.9386491146 -2.604550987 0.9756735512 0.3226287308 -0.9024024098 0.2856231659 6.428484731e-40
0.9654386431 -2.583363835 1.031830557 0.3111409019 -0.9056709318 0.2880130248 6.428484731e-40
0.9300530858 -2.529296035 1.365215002 0.2927357897 -0.8928786396 0.3421600391 2.479558396e-39
0.967785441 -2.518495221 1.269452689 0.308199934 -0.8943530463 0.3242613595 2.479558396e-39
1.325934428 -2.255020862 1.572750679 0.4177552579 -0.7428912975 0.5230612436 2.571393892e-39
1.386761912 -2.172626602 1.664377269 -0.4171841893 0.6841396911 -0.5982559948 2.571393892e-39
1.252699583 -2.025638543 1.798207938 -0.3765251258 0.646086585 -0.6639284256 3.397913358e-39
1.618116145 -1.817859912 1.838193627 0.4749127998 -0.5991026741 0.6446191266 2.571393892e-39
1.460724444 -1.609011992 2.069049147 -0.4474482842 0.5295733617 -0.7206539305 2.755064885e-40
1.733758592 -1.418345577 1.960171126 0.5842043316 -0.4302651864 0.6881694329 4.591774808e-40
1.716852526 -1.116258005 2.169282845 0.5811150926 -0.412748934 0.701386888 2.020380915e-39
1.565696272 -1.109924047 2.241003202 0.5174564308 -0.3757696037 0.7687886882 2.020380915e-39
1.598245238 -1.00866401 2.287888414 0.511481659 -0.3853247098 0.7680568863 2.020380915e-39
1.85011959 -0.7343471766 2.394277914 0.6549960384 -0.2996431777 0.6936815954 2.020380915e-39
1.882496121 -0.3042949011 2.36389367 0.6331882432 -0.1524147546 0.7588427974 1.19386145e-39
1.783626284 -0.1479650599 2.485963626 0.5596603073 -0.05950043327 0.8265833526 5.510129769e-40
1.851476128 0.01418448828 2.426826805 -0.5884323389 0.009888807629 -0.8084859888 6.428484731e-40
1.948799993 0.0004331715079 2.351287913 0.6430301323 -0.02577429783 0.7654070384 1.19386145e-39
1.817872398 0.6372112336 2.33487482 -0.4968007629 -0.2581199105 -0.8285910414 6.428484731e-40
1.781581406 0.8636974901 2.272638776 0.4744434403 0.3289259294 0.8165238239 3.306077862e-39
1.741961425 0.7857583581 2.256364143 -0.5291225325 -0.335849538 -0.7792524837 3.306077862e-39
1.479115951 1.012653661 2.345551016 -0.3605834278 -0.3631387952 -0.8591331719 9.183549616e-40
1.804258698 1.01767394 2.196837225 0.5078266921 0.3650098384 0.7803075474 6.428484731e-40
1.480933369 1.711326644 1.965655618 0.3871944906 0.6274335102 0.6755794674 2.938735877e-39
1.617749036 1.53584162 2.060696551 0.4163230498 0.514562909 0.7495999806 1.561203435e-39
1.431981253 1.922817252 1.753829718 -0.3989671228 -0.7055711972 -0.5856573406 3.673419846e-39
1.537100179 1.85757576 1.822251204 -0.399523243 -0.6940965488 -0.5988415143 7.346839693e-40
1.403968309 2.245951539 1.440156045 0.4424519692 0.7178402993 0.5375328452 8.265194654e-40
1.158385095 2.235394641 1.504841902 -0.420430342 -0.7049694101 -0.5711886364 9.183549616e-41
1.034680805 2.461769716 1.518642566 -0.4342460624 -0.714623594 -0.5484008353 9.183549616e-41
0.9786489639 2.529733261 1.418446812 -0.4062377606 -0.7753241835 -0.4835734612 2.938735877e-39
1.125717983 2.528515825 1.167018731 -0.4497385188 -0.8131523354 -0.3694841595 2.938735877e-39
0.9646237792 2.710069443 0.9761166188 0.3487083886 0.8968130999 0.2722659059 2.755064885e-40
0.8431077584 2.841944332 0.9776381086 0.2031750392 0.951265032 0.2319800471 2.755064885e-40
0.6843017328 2.853992221 0.5868105323 0.1587908888 0.9809675676 0.1117501004 2.755064885e-39
0.4110975063 2.910764708 0.498702026 0.09950877805 0.9869248569 0.1267964111 2.755064885e-39
0.3306958045 2.918277022 0.4603492355 0.0909967043 0.9880215699 0.1246313656 2.755064885e-39
0.04906249659 2.973866013 -0.01952067319 0.007933458526 0.999606209 -0.02691629848 2.755064885e-39
-0.1523597005 3.014310892 -0.02448399815 0.02039865205 -0.9996831092 0.0147504609 2.755064885e-39
-0.1407470425 -2.966267757 0.03024806824 -0.04870512956 -0.9982379397 0.0338943379 1.285696946e-39
-0.1157120173 -3.00517857 0.01413225097 -0.05097150207 -0.9984418033 0.02271280219 1.285696946e-39
0.3129790199 -3.003542698 0.1299872379 0.04700214352 -0.9955431043 0.08176017388 6.428484731e-40
0.1344628887 -2.953066251 0.2967160012 0.006365319437 -0.993442765 0.1141532102 6.428484731e-40
0.6070397842 -2.877598312 0.717331456 -0.2203289115 0.9542876592 -0.2019659235 6.428484731e-40
0.5629970513 -2.861813384 0.6592594934 0.1896104208 -0.9649954463 0.1811951347 6.428484731e-40
0.8910515934 -2.644778651 0.8212384223 -0.3433678219 0.902148552 -0.2612020847 3.673419846e-40
0.6931600214 -2.569811263 1.270973034 -0.3175118577 0.8830641743 -0.3455197308 4.867281296e-39
0.7036517012 -2.580956148 1.387995646 0.2765211313 -0.8920428857 0.3574850402 2.571393892e-39
1.083814909 -2.280999914 1.662082593 -0.3537269347 0.7392776819 -0.5730146287 2.479558396e-39
1.080169888 -2.332820236 1.59482732 -0.3523513637 0.7824604389 -0.5134239749 2.479558396e-39
1.136255723 -2.301694833 1.559732269 0.3680691542 -0.7760857921 0.5120702501 2.846900381e-39
1.260191076 -1.968779944 1.742605136 -0.4014907786 0.665980204 -0.6287094104 1.561203435e-39
1.314153476 -1.728288224 2.049076176 -0.3905489407 0.6029847151 -0.6956155247 2.755064885e-40
1.516568313 -1.436905484 2.14634039 -0.4837874462 0.4359167296 -0.7588980905 2.755064885e-40
1.282949836 -1.460486326 2.252131418 -0.4115814714 0.4598112065 -0.7868763224 4.316268319e-39
1.420509999 -1.498307332 2.161274605 0.4443226131 -0.4768175987 0.7584341718 2.755064885e-40
1.588475124 -1.119889497 2.225239665 0.526341008 -0.381958021 0.7596533509 2.020380915e-39
1.840787636 -0.6635034597 2.316366068 0.6290117098 -0.2841446984 0.7236062875 2.020380915e-39
1.756838178 -0.8062700748 2.493757852 0.5059349098 -0.3773872343 0.7756344129 2.020380915e-39
1.804238632 -0.6445602846 2.484210912 -0.5910051362 0.189444882 -0.7841068586 2.020380915e-39
1.780032773 -0.0159304243 2.517012609 0.5417415149 0.02052638415 0.8402944714 6.428484731e-40
1.646460664 -0.2038688291 2.559356864 -0.4798811001 0.06013969355 -0.875269871 3.673419846e-39
1.746340095 0.2751439313 2.467102945 0.4995874858 0.1164563112 0.858399832 6.428484731e-40
1.665324373 0.2461453007 2.522339156 -0.4612375671 -0.1125524266 -0.8801090035 6.428484731e-40
1.392959747 0.7234556622 2.529200402 -0.3850659003 -0.3319710309 -0.8611152577 3.122406869e-39
1.620302641 0.8691708991 2.340276762 -0.4290441714 -0.3345185638 -0.8390580608 1.836709923e-39
1.767572981 1.132113433 2.197478101 0.4614961215 0.3889861254 0.7973149466 6.428484731e-40
1.3930016 1.138386924 2.316096584 0.35210361 0.3845986266 0.8532918283 9.183549616e-40
1.682966671 1.542819475 2.02337684 0.4551908363 0.5108510379 0.7292684826 1.561203435e-39
1.535698535 1.490642857 2.147998995 0.3693834967 0.4696777768 0.8018470043 1.561203435e-39
1.161784178 1.784421505 2.109629906 -0.3993942209 -0.5583123312 -0.7271668289 1.010190458e-39
1.073821479 1.951949195 2.020642002 -0.4378603963 -0.6547735005 -0.6160762423 9.183549616e-41
1.045274638 1.972151374 1.895578019 0.4084012925 0.6853020385 0.6029672464 3.857090839e-39
1.058895675 2.122092782 1.675498021 -0.40601192 -0.6948523486 -0.5935777409 3.857090839e-39
1.154350499 2.330559057 1.435255409 0.4377225316 0.7194754259 0.5392161875 9.183549616e-41
1.035264055 2.457458781 1.46120419 -0.4284138744 -0.7340478838 -0.5269110519 2.571393892e-39
0.7545042368 2.74549964 1.221834644 -0.1815705206 -0.9133223536 -0.3645194431 2.663229389e-39
0.4976229716 2.823126188 1.002230411 0.0708693676 0.9653318204 0.2512210367 9.183549616e-40
0.4186067304 2.785333854 1.005205232 0.07465750093 0.958916005 0.2736902498 9.183549616e-40
0.2547475357 2.89514756 0.5374963951 0.0675649839 0.988481546 0.135422325 2.755064885e-39
0.3283008854 2.90201972 0.5414348798 0.08597343472 0.9872083323 0.1342694198 2.755064885e-39
0.1348678656 2.916715726 0.4323665216 0.03453540225 0.9926220222 0.11622748 2.755064885e-39
0.05516325127 2.9984094 -0.01731064646 0.01971511269 0.9997169535 -0.0133164302 2.755064885e-39
-0.2487484925 2.955890195 -0.02360842154 -0.0687805112 0.9973674884 -0.02296376211 2.755064885e-39
-0.05786187946 -2.966923613 -0.06006397117 0.04008817392 0.9991614593 -0.008325657668 2.020380915e-39
0.1219847827 -2.991930134 -0.0530364256 -0.005278263434 -0.999870898 0.01517653588 6.428484731e-40
0.2194690604 -2.975096555 0.3211070595 0.02163424975 -0.9915568409 0.1278553495 6.428484731e-40
0.1218721973 -2.882578409 0.7875674862 0.03075520683 -0.9881175849 0.1505913535 7.346839693e-40
0.1871634036 -2.879876672 0.8729075574 0.06475530102 -0.9832560558 0.1703357854 7.346839693e-40
0.446012577 -2.793171096 1.0080848 -0.2197144161 0.9419774656 -0.2537794901 7.346839693e-40
0.8877984368 -2.617389899 0.8892333594 0.3485737723 -0.8975963937 0.2698463253 6.428484731e-40
0.705055524 -2.648400496 1.081231214 0.3179569608 -0.9009582377 0.2952585732 7.346839693e-40
0.8177159515 -2.502853991 1.252558524 -0.3459413785 0.8702706176 -0.3506474224 2.571393892e-39
0.9346333304 -2.370683109 1.55108542 0.3433349557 -0.8105842314 0.4744199742 5.510129769e-39
1.018593345 -2.109262604 1.764382076 0.3862847808 -0.6745958119 0.6290505216 6.428484731e-40
0.8130023504 -2.212865023 1.936884008 0.3295660473 -0.6923276924 0.6419256864 9.183549616e-41
1.051788257 -2.021418913 1.816976003 0.3920631099 -0.6545877241 0.64637561 5.418294273e-39
1.203293152 -1.643809452 2.157649846 0.3834369796 -0.5756139923 0.7222496899 4.040761831e-39
1.434259998 -1.665572841 2.080746194 -0.4319836004 0.5259438025 -0.7326481322 2.755064885e-40
1.485771264 -1.453701936 2.15310649 -0.4725139199 0.4458255657 -0.7602434876 2.755064885e-40
1.475631904 -1.240960511 2.262615894 -0.4535203266 0.4111761432 -0.7907297216 2.755064885e-40
1.5839701 -1.155313351 2.244319544 0.4999643187 -0.4172441145 0.7589091046 2.020380915e-39
1.256556093 -0.9442743963 2.446934674 0.4156076228 -0.3611402944 0.834774216 4.316268319e-39
1.507696705 -0.7555997347 2.520392313 -0.3896551339 0.3360774636 -0.8574501823 2.938735877e-39
1.404792918 -0.5195843732 2.572935468 -0.4342510702 0.2294455788 -0.8710802112 4.316268319e-39
1.616051433 -0.2332303941 2.542975958 0.4799623134 -0.1030056304 0.8712209925 1.744874427e-39
1.705574551 0.03649175687 2.506284097 -0.4955225084 -0.008745104118 -0.8685510732 6.428484731e-40
1.760592579 0.141604774 2.46596539 -0.5219012097 -0.05077284173 -0.8514935383 6.428484731e-40
1.539604947 0.2542012278 2.5567522 0.4418453206 0.1173263668 0.8893858759 1.19386145e-39
1.527893167 0.4255958341 2.564352871 -0.4249885665 -0.1902325249 -0.8849837879 1.19386145e-39
1.580647994 0.8311485364 2.421735455 -0.3780086775 -0.3302704588 -0.8648877753 3.765255342e-39
1.476818514 1.253822179 2.26847669 -0.3467110971 -0.4013137701 -0.8477845676 9.183549616e-40
1.181160272 1.239888201 2.344371211 0.353374032 0.3827768277 0.8535857858 1.377532442e-39
1.212754429 1.577593115 2.160883906 -0.3588281382 -0.5217784658 -0.7739441839 1.010190458e-39
1.527888959 1.576765986 2.05232434 0.395796567 0.5504143715 0.7351116223 1.561203435e-39
1.070995808 1.769834348 2.086577864 -0.3873484954 -0.5973708231 -0.7022173758 3.857090839e-39
0.9715218642 1.973913006 1.918374377 0.4048730048 0.677615541 0.6139340588 3.857090839e-39
1.01272476 2.085029034 1.774579608 0.4179028073 0.692177852 0.5884276207 3.857090839e-39
0.9865144191 2.223261351 1.599962404 -0.3935338854 -0.702590667 -0.5928721916 7.346839693e-40
0.7191297919 2.431322437 1.724112852 0.2379426714 0.7608430162 0.6037393393 3.306077862e-39
1.011382757 2.500467836 1.404646504 -0.4193618896 -0.7696255153 -0.4814687652 2.938735877e-39
0.6180294788 2.694757044 1.342190062 -0.09739821525 -0.9009679251 -0.4228124711 2.846900381e-39
0.775713553 2.817878638 1.016852554 0.1708376775 0.9507195762 0.2587407493 2.755064885e-40
0.6463027824 2.867032671 0.7961395181 0.1144790541 0.9801446569 0.1618981093 2.755064885e-39
0.6530372756 2.781021739 1.008763248 -0.1430068785 -0.9526855329 -0.2682150407 2.755064885e-40
0.4669481204 2.859674883 0.6501712038 0.09762942737 0.9841508149 0.1480394152 2.755064885e-39
-0.02343728806 2.969536776 0.5013042631 -0.02934559602 -0.9907536549 -0.1324614333 2.755064885e-39
0.1508703631 3.011880458 -0.01606624253 0.0461636902 0.9989314305 0.002216030639 2.755064885e-39
-0.1122107476 2.9644153 -0.2294114548 0.02347155633 -0.9959268335 0.08705646634 2.755064885e-39
-0.02154083778 -3.015704938 -0.05397901836 -0.04274940236 -0.9990800256 0.00340457552 2.020380915e-39
0.05442929347 -2.958934135 0.08670068676 0.01239833753 0.9982053682 -0.05858604116 2.020380915e-39
0.3811341788 -2.965736356 0.2926964141 0.07042551857 -0.990256808 0.1201320128 6.428484731e-40
0.2795270288 -2.9427156 0.4476626214 0.04230671111 -0.9894490766 0.1385664714 6.428484731e-40
0.3610482435 -2.925123786 0.6651386479 0.08338426809 -0.9838904664 0.1581347971 6.428484731e-40
0.4752827777 -2.788765885 1.083267018 -0.2429582364 0.9236532006 -0.2963714906 7.346839693e-40
0.4652308832 -2.644504315 1.326083118 -0.2408936808 0.893987 -0.3778326062 1.561203435e-39
0.8933801357 -2.542434235 1.140155165 -0.3332742648 0.8919974696 -0.3053993758 9.183549616e-41
0.6855024515 -2.545152913 1.54735076 0.2358799058 -0.8746527662 0.4234893254 4.316268319e-39
0.7899895551 -2.4036368 1.751108017 0.2744470559 -0.7935371242 0.5431184457 9.183549616e-41
0.6805512396 -2.266109962 1.902689383 0.2780195075 -0.729079851 0.6254180396 2.112216412e-39
0.7109584392 -2.075704399 2.06798478 0.3207791077 -0.6605023125 0.6788501007 1.653038931e-39
0.8182461971 -2.029623627 1.989222406 -0.371777249 0.6518670186 -0.6609470986 1.377532442e-39
1.03442976 -1.830104 2.189820046 0.3770047828 -0.5981259014 0.7071865383 4.040761831e-39
1.264939431 -1.72173267 2.109635931 -0.393179 0.5801292539 -0.7133444629 1.285696946e-39
1.200147461 -1.330832399 2.342049949 -0.407200994 0.4138626292 -0.8141898272 4.316268319e-39
0.9476307995 -1.352451149 2.531719168 0.3681193725 -0.4397162246 0.8192299857 2.204051908e-39
1.213851484 -0.865490532 2.525431808 -0.4217066528 0.3564013214 -0.8337515199 4.316268319e-39
1.454606656 -1.034203019 2.358715725 -0.4236845656 0.393789436 -0.8157335772 4.316268319e-39
1.51100004 -0.4182215951 2.563706387 -0.4511823831 0.1732646088 -0.8754506454 4.316268319e-39
1.24678262 -0.4590712286 2.664066945 -0.4179526459 0.1997785672 -0.8862302804 4.591774808e-40
1.226834331 -0.01793992006 2.710578007 -0.4363481393 0.01937314106 -0.8995693318 1.377532442e-39
1.475983886 -0.2301499615 2.58272093 -0.4432588039 0.1044912457 -0.8902826587 2.295887404e-39
1.344244131 0.1251072961 2.673836058 0.4277687287 0.0811340213 0.9002395155 1.19386145e-39
1.060602721 0.6231966626 2.714341815 0.4137782704 0.311115143 0.8555670113 3.397913358e-39
1.480607412 0.4596724058 2.560344307 -0.4216075967 -0.212728567 -0.8814723995 1.19386145e-39
1.200937578 0.8691897676 2.497399358 -0.3545499097 -0.3892879375 -0.8501466128 2.3877229e-39
1.03968541 1.012574267 2.469015147 0.3539124637 0.3873526268 0.8512954308 2.204051908e-39
1.160313109 1.11827836 2.386941544 0.3403259638 0.3802024651 0.8600141417 1.377532442e-39
1.213795927 1.377179729 2.279929057 0.3529036267 0.4172786495 0.8374589894 1.377532442e-39
1.101827116 1.728822572 2.166412906 -0.3910335728 -0.5287383673 -0.7533448638 1.010190458e-39
1.032315978 1.937148449 2.071802743 -0.4285096159 -0.6255322946 -0.6519883876 3.122406869e-39
1.158337764 2.042240418 1.759150558 -0.4089692974 -0.6992956653 -0.5862846461 9.183549616e-41
0.8343485815 2.108765126 2.048514228 0.370110162 0.6876610593 0.6246124683 3.857090839e-39
0.8748204189 2.125045253 1.84929177 -0.3918380809 -0.699101114 -0.5980974425 7.346839693e-40
0.6001934303 2.51974213 1.61437643 0.1283296233 0.8127226994 0.5683426093 1.285696946e-39
0.7937340708 2.611462223 1.463772419 -0.2479616777 -0.8296233774 -0.5002400005 8.265194654e-40
0.6713998009 2.663530539 1.411518706 -0.1360608789 -0.8729273496 -0.4684925609 2.3877229e-39
0.7770184817 2.663821333 1.21922002 -0.2469276569 -0.8915324472 -0.3797323107 2.020380915e-39
0.3085872128 2.844861547 0.9788394808 0.06039700895 0.9666224173 0.2489845452 4.040761831e-39
0.3408939213 2.857441512 0.7017842418 0.07488391902 0.983471802 0.1648502756 2.755064885e-39
0.3944785603 2.907932286 0.3825624493 0.1038155085 0.9895156742 0.1004045352 2.755064885e-39
0.3672290269 2.969695409 0.222544304 0.1047965764 0.9909967125 0.08332582682 2.755064885e-39
-0.01734778028 3.013650308 0.2787131698 -0.03396465902 -0.9960312915 -0.08226827026 2.755064885e-39
0.05583647192 2.968665253 -0.104148552 0.008858879916 0.9983274616 -0.05712967451 2.755064885e-39
-0.2353264394 -2.951563689 -0.2325637738 0.07694140092 0.9950574622 0.06277473815 1.561203435e-39
-0.1692538065 -2.927871944 0.4293077352 -0.03657952723 -0.9912346314 0.1269481932 7.346839693e-40
0.2869021895 -2.953475181 0.384813886 0.04219284321 -0.9901625592 0.133408659 6.428484731e-40
0.2044737448 -2.932103703 0.5892459257 0.02817759426 -0.9888413437 0.1462833555 2.020380915e-39
0.2859885602 -2.857272188 0.9893204221 -0.1313661646 0.9646144907 -0.228608432 7.346839693e-40
0.5916865309 -2.844734422 0.8672651861 -0.2565504996 0.9338988948 -0.2490274994 6.428484731e-40
0.3123252743 -2.833789196 1.057754132 -0.1575063325 0.9521139392 -0.2620511437 7.346839693e-40
0.4081174756 -2.637001586 1.394094153 -0.2104683875 0.8873147169 -0.4103360222 1.561203435e-39
0.7678321218 -2.608485055 1.234619046 0.2982281658 -0.8998717325 0.3182621971 2.571393892e-39
0.6103019759 -2.556143556 1.521339673 0.2340017487 -0.8741199545 0.425625994 4.867281296e-39
0.9595198072 -2.366308773 1.640271884 -0.3307122103 0.7903567001 -0.5157186448 5.418294273e-39
0.8170076531 -2.096271765 1.980846091 -0.3645872843 0.6561954067 -0.6606691308 1.377532442e-39
0.8557452367 -1.917406813 2.044509019 -0.3730357832 0.6370037459 -0.674589158 1.377532442e-39
0.8445517794 -1.671079047 2.362853827 -0.3176989079 0.5244302269 -0.7899622402 3.397913358e-39
0.9378720041 -1.681000778 2.24500383 0.3544420959 -0.5712927748 0.7402670911 3.397913358e-39
0.7877049971 -1.590437956 2.444342539 -0.2564442644 0.4759082084 -0.8412774313 3.397913358e-39
0.9861680237 -1.212067879 2.478509535 -0.3575872973 0.3976053779 -0.845009638 3.397913358e-39
1.267023606 -0.9091400623 2.466441821 -0.4157911189 0.3615844445 -0.8344905242 4.316268319e-39
0.8102428986 -1.016189856 2.7378649 -0.2435051798 0.4137806 -0.8772062714 1.102025954e-39
0.993360922 -0.6315353688 2.749596686 -0.3662671202 0.2362237514 -0.900025964 1.102025954e-39
1.23439777 -0.421846361 2.699063625 0.42058731 -0.1739630079 0.8904174227 4.591774808e-40
1.267187935 -0.3616535544 2.731270168 0.4234603649 -0.1175832875 0.8982513512 4.224432823e-39
0.8832156881 -0.009647936652 2.933574949 -0.3715853161 0.0344477295 -0.9277595091 5.142787785e-39
1.225097999 0.3147301928 2.701516949 -0.4231399734 -0.1592641899 -0.891957107 1.19386145e-39
1.076624904 0.3625101094 2.774484095 -0.4181928947 -0.1919494167 -0.8878457773 1.102025954e-39
1.110716674 0.5755786652 2.689144962 -0.3974281081 -0.3086089776 -0.8641825026 3.397913358e-39
0.9958085897 0.8253509808 2.593879415 -0.3551046033 -0.4018899081 -0.8440291597 1.102025954e-39
1.225713728 1.084561779 2.38907538 0.3374026772 0.377720355 0.8622567871 1.377532442e-39
1.088800987 1.387500045 2.331751895 0.3769155816 0.4040405978 0.8334781579 1.010190458e-39
0.8937513612 1.282127707 2.415848994 -0.3493701991 -0.383304013 -0.8549961974 4.499939312e-39
1.063549936 1.846264406 2.090310994 0.4051075345 0.6002271473 0.6896486476 3.857090839e-39
1.023603122 1.583645428 2.272610508 -0.3798937869 -0.467405603 -0.7982560447 1.010190458e-39
1.019998303 1.964424225 1.920488267 -0.4120988647 -0.6789304412 -0.6076413265 3.857090839e-39
0.8093385972 2.299438462 1.789102387 -0.3501101339 -0.7179920037 -0.6015898741 3.306077862e-39
0.6192083328 2.196016174 1.949060792 -0.2430814483 -0.7371504852 -0.6304923249 2.938735877e-39
0.6945652833 2.447014391 1.714917941 0.2078009961 0.7714404831 0.6014136073 2.846900381e-39
0.7955636578 2.647973242 1.362575571 -0.2485686944 -0.8597638141 -0.4461163392 2.663229389e-39
0.5847412635 2.666380265 1.310594538 -0.1217361624 -0.8999158317 -0.4187264056 2.846900381e-39
0.6670028526 2.702907991 1.33765386 -0.1214672656 -0.8977904764 -0.423341427 2.846900381e-39
0.3507105751 2.822368657 0.9637905616 0.06456574073 0.9674839064 0.2445529719 2.755064885e-39
0.1241473508 2.858235781 0.819889664 0.03418658257 0.9797756543 0.1971571575 2.755064885e-39
0.01580403896 2.988738009 0.3854931981 -0.04241739028 -0.9929297605 -0.1108659355 2.755064885e-39
0.006774769357 3.000666812 0.1888621622 -0.0211736802 -0.998330613 -0.05373697518 2.755064885e-39
0.2718754083 2.995850108 -0.01765262135 -0.07691326117 -0.9970312288 -0.003616502761 2.755064885e-39
0.09331023199 2.995410795 0.1260773199 -0.03706815809 -0.9986333536 -0.03684259471 2.755064885e-39
0.1649114933 -2.978786861 0.04761514987 0.00922508931 -0.9986357882 0.05139513769 6.428484731e-40
-0.0233215913 -2.931887846 0.4369995012 -0.01787966963 -0.9914670487 0.1291255542 2.020380915e-39
0.176628613 -2.940303477 0.3813861299 0.01748547218 -0.9917832932 0.1267286774 6.428484731e-40
0.3428007972 -2.891935211 0.4649717057 0.08341511819 -0.9875358142 0.1334725957 6.428484731e-40
0.1131676689 -2.890949668 0.7995051922 0.02407955446 -0.9879254829 0.1530471015 7.346839693e-40
0.3410158532 -2.89574706 0.9187914278 -0.1292099659 0.9691710167 -0.2097911465 7.346839693e-40
0.4311353281 -2.704434515 1.271058911 0.2266423606 -0.9062197161 0.3569300583 1.561203435e-39
0.5547775814 -2.563705559 1.513217493 0.2303719974 -0.8712849332 0.4333489448 1.469367939e-39
0.5671107065 -2.518657429 1.603227268 -0.2203823369 0.8525207041 -0.4739621026 7.346839693e-40
0.3530757182 -2.493789136 1.70949523 -0.1200904657 0.8282775439 -0.5472975336 1.469367939e-39
0.8409437358 -2.28100845 1.743093938 -0.3415748885 0.7449136083 -0.5730883979 1.653038931e-39
0.6678329044 -2.173270932 2.05081639 -0.2695666143 0.6947058125 -0.6668715577 2.112216412e-39
0.8454544968 -1.885625307 2.164961004 -0.3591669616 0.6129692897 -0.7037526153 1.377532442e-39
0.6385165817 -1.773237179 2.383591951 -0.2293562318 0.5150210992 -0.8259231117 5.510129769e-39
0.8986190841 -1.622922386 2.350692136 0.3390780439 -0.5213556319 0.7830800631 3.397913358e-39
0.6023564582 -1.65221386 2.414074607 0.1822906811 -0.4852291861 0.8551741019 1.19386145e-39
0.7990179911 -1.054727829 2.663993395 -0.2531503567 0.4060111249 -0.8781058384 0
0.7364531713 -1.246489901 2.594443622 -0.1900150935 0.4268086821 -0.8841541795 0
0.9860162586 -0.8542853281 2.746037097 -0.4087672405 0.3280970448 -0.8516229637 6.428484731e-40
1.009027242 -0.7974301604 2.742682202 0.4153709347 -0.3004321575 0.858607888 6.428484731e-40
1.183290549 -0.4946426725 2.67768936 -0.4102417472 0.2131083128 -0.8867280056 6.428484731e-40
1.112888307 -0.02193357611 2.809746746 -0.4447794984 0.004757173385 -0.8956274712 2.020380915e-39
0.9129295319 -0.1322087814 2.913406465 0.3727313488 -0.1103956745 0.9213490851 1.836709923e-39
0.9149249483 -0.01816154062 2.915870887 -0.3876353822 0.03772041473 -0.9210407053 1.102025954e-39
1.130997739 0.5827689707 2.687468028 0.4056906385 0.2992003824 0.8636516873 3.397913358e-39
0.6429477775 0.8018209109 2.864611702 -0.2511306865 -0.3556376594 -0.900252872 5.510129769e-40
0.8828246209 0.8932898111 2.669822441 -0.3887867711 -0.3919236746 -0.8338109377 5.510129769e-40
0.8767890631 0.9141882766 2.590397073 -0.3452409352 -0.400738983 -0.8486559752 5.510129769e-40
0.7313579345 1.445148489 2.480965138 0.2971795911 0.4185119085 0.858214468 2.204051908e-39
0.7080663558 1.510416912 2.45477488 0.2840371824 0.4422138189 0.8507466235 4.591774808e-40
0.6289195869 1.690323233 2.394409809 0.2401457295 0.506191605 0.8283115885 4.591774808e-40
0.806180985 2.005748483 2.11150793 -0.3403466082 -0.6434982844 -0.6856195331 4.499939312e-39
0.8351423835 2.032523858 2.166030492 -0.333202581 -0.6152551642 -0.7144488245 3.857090839e-39
0.7055817686 2.141807291 2.051205984 0.2799868964 0.7111650271 0.6448656 3.306077862e-39
0.7116023286 2.047053961 2.11978527 -0.286122359 -0.6659260761 -0.6889676747 3.306077862e-39
0.5941242353 2.513604135 1.628043471 0.1192956201 0.8092417403 0.5752359175 1.285696946e-39
0.2573985017 2.532018935 1.548237629 -0.0004277122399 0.8498770105 0.5269809143 1.836709923e-40
0.4188042993 2.675230643 1.298374505 0.04469826636 0.9081208961 0.4163153888 3.948926335e-39
0.398346037 2.643471944 1.408132273 0.02063173296 0.885604214 0.4639822279 2.846900381e-39
0.1648318282 2.831712674 0.9209507145 0.0384610562 0.9711843102 0.2352058308 2.755064885e-39
0.2811273813 2.853039051 0.8703932972 0.06646548062 0.9761681459 0.2065867633 2.755064885e-39
0.425552799 2.863669148 0.7093636987 0.08668003648 0.9831199908 0.1611262081 2.755064885e-39
-0.1089370259 2.942184574 0.3977987856 -0.03680190513 0.9935383597 0.1073645545 2.755064885e-39
-0.166202669 2.985956299 0.287505301 -0.03306320233 0.9963017617 0.07930715147 2.755064885e-39
0.1226137157 2.988346512 0.0518054984 0.03769072735 0.9992544797 0.008360256811 2.755064885e-39
-0.04088722029 -3.025274241 -0.1885304616 0.05412274935 0.9969547459 0.056142342 1.285696946e-39
0.1308555908 -2.955533928 -0.02978568051 -0.007497649358 0.9997288004 -0.02204792169 6.428484731e-40
0.1330963628 -2.907518341 0.586549831 0.01585048576 -0.9902134732 0.138657995 2.020380915e-39
0.1778517499 -2.898373285 0.7211853003 0.0358893601 -0.988106247 0.1495259126 2.020380915e-39
0.355131318 -2.885918068 0.9856793328 0.1519156062 -0.9561576691 0.2503680499 7.346839693e-40
0.01870723267 -2.859259406 0.8400219247 0.009439246233 -0.9875673443 0.1569128453 7.346839693e-40
0.1401956761 -2.858042658 1.144730415 -0.06897405401 0.9522844031 -0.2973163223 2.938735877e-39
0.2547706123 -2.736503474 1.342340727 -0.1455802472 0.9040476877 -0.4018758142 1.561203435e-39
0.3480486457 -2.42408848 1.795022611 -0.1057735082 0.8056489747 -0.5828736522 2.663229389e-39
0.5006546811 -2.539380374 1.613730397 0.1805982825 -0.8554249355 0.4854198596 1.469367939e-39
0.660196362 -2.396140418 1.804718442 0.2244562898 -0.7923831775 0.5672285906 1.653038931e-39
0.7725061726 -1.965398031 2.088859789 -0.3491326401 0.6367135758 -0.6875334333 4.591774808e-40
0.6145126767 -1.94537807 2.275129946 0.2598079615 -0.599919682 0.7567008645 2.112216412e-39
0.3436567395 -1.949418654 2.351134396 0.0698913963 -0.586325024 0.8070552391 1.561203435e-39
0.4864653344 -1.576555537 2.450798356 0.1124230393 -0.4393579842 0.8912494723 1.19386145e-39
0.8322690075 -1.281184583 2.557469036 -0.2713874346 0.4253751703 -0.863368302 3.397913358e-39
0.7782382938 -1.322199602 2.568461136 -0.2099491137 0.4392915568 -0.8734668269 3.397913358e-39
0.5240952724 -0.8478131478 2.839312735 -0.08660607354 0.374899749 -0.9230111409 3.122406869e-39
0.8482205088 -0.6272220517 2.875739518 -0.311948804 0.1852951505 -0.9318549516 1.102025954e-39
0.5774936631 -0.4276109453 2.906274282 0.1520962091 -0.2137780538 0.9649692673 3.122406869e-39
0.696297119 -0.4118843422 2.874060005 0.2223997691 -0.2017973385 0.9538428471 5.142787785e-39
0.6516719163 -0.3817139237 2.865014068 0.1883216641 -0.2157419869 0.9581181273 3.122406869e-39
0.7276014561 0.19516026 2.986865535 -0.3079676353 -0.1108879969 -0.9449125821 5.142787785e-39
0.7616273963 0.186983122 2.967925399 0.3126409675 0.09955970689 0.944639344 5.142787785e-39
0.6074700497 0.6366314495 2.856185111 -0.247860371 -0.3468957717 -0.9045598709 3.397913358e-39
0.7904516947 0.7405668928 2.812911215 -0.3430626914 -0.3441047382 -0.8740136835 5.510129769e-40
0.8190530213 0.6931520149 2.841343323 -0.3644704535 -0.294980875 -0.8832596288 1.102025954e-39
0.7409793152 1.132191501 2.67438173 0.3365915171 0.4107861339 0.847325736 9.183549616e-40
0.7892315765 1.436419445 2.495252889 -0.3305233954 -0.4223350963 -0.844030421 4.499939312e-39
0.7662340945 1.520123915 2.455979716 0.3092982043 0.4454579914 0.8401796229 4.499939312e-39
0.8019744581 1.539042632 2.425452408 0.3274293405 0.4467993193 0.8325625474 4.499939312e-39
0.3801006556 1.641335414 2.46491881 -0.09494891749 -0.4748854694 -0.8749105634 9.183549616e-41
0.5275769756 2.015602643 2.186675422 -0.1959703554 -0.6615053399 -0.7238827979 3.306077862e-39
0.4877784656 2.154103584 2.137131945 -0.12464593 -0.7055957239 -0.6975658152 2.846900381e-39
0.2602450792 2.302972757 1.888615365 0.04172478199 0.8033360552 0.5940624757 3.489748854e-39
0.4979732271 2.42129228 1.727687971 0.1025744222 0.8006555975 0.5902788342 4.316268319e-39
0.3778697831 2.544181261 1.561136043 0.01840774623 0.8434382804 0.5369106277 2.846900381e-39
0.3339554909 2.644650141 1.437072242 -0.00036186558 0.8767832211 0.4808856956 2.846900381e-39
0.2218890863 2.718449599 1.311071017 0.001658304017 0.9062447326 0.4227502036 4.040761831e-39
0.08050984534 2.857572185 0.9111764042 0.02434077107 0.9729953209 0.2295378669 2.755064885e-39
0.329033996 2.821937647 0.923386291 0.06522560092 0.9708583828 0.2306070719 2.755064885e-39
0.03089855903 2.88879055 0.8331880371 -0.01901848635 -0.9794371348 -0.2008511792 2.755064885e-39
0.03353622991 2.955680129 0.6264097365 0.0509196268 0.9868668171 0.1533006096 2.755064885e-39
0.2464412176 2.927170421 0.3785230754 0.07047701653 0.9917145723 0.1074020351 2.755064885e-39
-0.2354743489 2.969391829 0.186394468 -0.06789077467 0.9966753666 0.04504504683 2.755064885e-39
0.09417105619 -2.997970769 -0.05587872941 -0.01429549049 -0.999810754 0.01319450907 2.020380915e-39
0.1947155726 -2.964011493 0.2023393379 0.01827227147 -0.9952166577 0.09596837157 6.428484731e-40
0.2669818732 -2.995296973 0.2431601113 0.0309065491 -0.9930429789 0.1136240611 6.428484731e-40
0.1897515671 -2.892855858 0.5277145534 0.03821369801 -0.9906630715 0.1308678418 6.428484731e-40
0.0250578479 -2.899229922 0.9803099425 0.02122883627 0.9798494339 -0.198606202 4.224432823e-39
0.04490060826 -2.79863866 1.27383705 0.03072820333 -0.9335162662 0.3572158428 1.19386145e-39
-0.02784555415 -2.787800357 1.266387219 -0.003479780462 -0.9354360381 0.3534788674 1.19386145e-39
0.3973086437 -2.679210404 1.35946362 0.2075378227 -0.8942534455 0.3965335135 4.867281296e-39
0.1159809873 -2.438825057 1.766400175 0.008283927046 -0.7982425156 0.6022792234 2.295887404e-39
0.1303194736 -2.364590502 1.894225373 0.001747223775 -0.7787461404 0.6273367486 9.183549616e-40
0.09386308717 -2.323963018 1.925402639 -0.02377636285 -0.7657193567 0.6427352109 9.183549616e-40
0.2849846006 -2.229278763 2.063607902 0.0521299216 -0.7369955609 0.6738842738 2.663229389e-39
0.2344738509 -1.950978987 2.337806137 0.004239861482 -0.5902250186 0.8072276327 1.561203435e-39
0.4321339316 -1.905461555 2.392155172 -0.1285624945 0.5462451556 -0.8277003775 1.19386145e-39
0.2802854175 -1.516310102 2.474093651 -0.07064577325 0.4160063724 -0.9066134087 1.561203435e-39
0.6006965926 -1.590519112 2.447852412 0.1600142384 -0.4515423813 0.8777840973 1.744874427e-39
0.4675529186 -1.457269441 2.49878318 -0.08585670822 0.4002692552 -0.9123667842 3.030571373e-39
0.6251919354 -0.9501500146 2.726021976 -0.1367729978 0.3840858178 -0.9131107445 3.122406869e-39
0.6675741723 -0.6661761812 2.901499973 -0.1877884789 0.2438300962 -0.951463279 5.142787785e-39
0.6076467806 -0.5497592776 2.895769939 0.1584537986 -0.2245815984 0.961486089 3.122406869e-39
0.6245215437 -0.2538661598 2.902530477 -0.1760740388 0.1977032516 -0.9643191158 5.142787785e-39
0.4155736487 -0.3875766075 2.9887391 0.06433619371 -0.2169395035 0.9740626807 2.663229389e-39
0.4846425214 0.08810464475 3.078224896 -0.1876796981 0.009083020417 -0.9821882862 1.469367939e-39
0.735440708 0.04451798789 3.00412138 0.3053970886 0.004021557256 0.9522165958 5.142787785e-39
0.6944483279 0.1954614492 3.004340436 0.29981653 0.1190954242 0.9465338495 5.142787785e-39
0.4349715706 0.7082738736 2.884957348 -0.145696751 -0.3789470615 -0.9138772244 2.479558396e-39
0.407545923 0.7444971249 2.825987387 0.1377039743 0.4041677519 0.9042599426 2.479558396e-39
0.2915311489 1.126891498 2.714962066 0.07613422292 0.4128948179 0.9075910144 9.183549616e-41
0.3231051616 1.28024246 2.658401825 -0.0660142548 -0.4503902976 -0.8903879481 9.183549616e-41
0.4674472546 1.621371075 2.473798062 -0.1314280872 -0.4754234703 -0.8698845796 2.295887404e-39
0.5981952263 1.393217151 2.571562482 0.2082647801 0.4246076464 0.881098251 4.591774808e-40
0.6342638058 1.902848475 2.304087273 -0.2163690097 -0.5472532969 -0.808516098 4.591774808e-40
0.4573251175 1.892138142 2.323824336 -0.1502446627 -0.574051361 -0.8049171238 2.295887404e-39
0.4859662256 2.258665135 1.994775971 -0.1214133946 -0.7712647089 -0.6248276054 2.938735877e-39
0.1222413704 2.35979774 1.774782414 0.008197205994 0.8252359809 0.5647285911 1.102025954e-39
0.1843240587 2.307296276 1.87964586 0.02302205343 0.8063592248 0.5909778217 3.489748854e-39
0.1181005295 2.529338916 1.472308031 0.02711164831 -0.8595334638 -0.5103598564 3.673419846e-40
0.4370154616 2.74316989 1.190987559 0.0511349616 0.9329690951 0.3563058846 4.040761831e-39
-0.02011023717 2.784037674 1.128141437 -0.02414214259 0.9374136433 0.3473799337 9.183549616e-40
0.2298941238 2.738077531 1.227309247 0.01197648824 0.9220706233 0.3868363082 2.295887404e-39
0.03940870515 2.929603949 0.6035936756 0.03246219943 0.9883261606 0.1488543106 2.755064885e-39
0.3160247267 2.916241395 0.7069831582 0.08715666822 0.9838807342 0.1561486988 2.755064885e-39
0.05877881176 2.910590025 0.5886799447 -0.02480068884 -0.9889972359 -0.1458403004 2.755064885e-39
0.160124939 2.959660486 0.19204743 0.04488527067 0.9975729555 0.0532307327 2.755064885e-39
-0.0207317152 3.014075365 0.08881657834 -0.01428623298 -0.9996811803 -0.0208192551 2.755064885e-39
0.07045427329 -2.986475855 -0.1152426535 -0.0183951972 -0.9998005259 -0.007779789467 2.020380915e-39
-0.03801019256 -3.003060008 0.3282439751 -0.01723809126 -0.991548477 0.1285864147 1.285696946e-39
0.01161447152 -2.970730059 0.2938602726 -0.01635045069 -0.9932516654 0.1148206945 2.020380915e-39
-0.07949921635 -2.919997014 0.5048697401 -0.02655194582 -0.9906298983 0.1339679018 7.346839693e-40
-0.1352015545 -2.867607599 0.7964793982 -0.04548903105 -0.9887863042 0.1422406153 4.224432823e-39
0.04926020725 -2.831021919 1.195485556 0.02976940146 -0.9489940051 0.313885586 2.938735877e-39
0.04219792517 -2.65807131 1.491540723 0.02269432671 -0.873800529 0.4857546738 1.561203435e-39
0.2255811478 -2.627259351 1.531321666 0.1114653748 -0.8663348345 0.4868669477 2.295887404e-39
