# .PCD v0.7 - Point Cloud Data file format
VERSION 0.7
FIELDS x y z normal_x normal_y normal_z rgb
SIZE 4 4 4 4 4 4 4
TYPE F F F F F F F
COUNT 1 1 1 1 1 1 1
WIDTH 511
HEIGHT 1
VIEWPOINT 0 0 0 1 0 0 0
POINTS 511
DATA ascii
-0.186791199 2.964054537 -0.3830052628 -0.06743552123 0.9887638947 -0.1334106852 0
-0.09365273473 2.988309672 -0.1920587559 0.04097007499 -0.9964450952 0.07361131189 0
1.55543171e-05 2.99841781 6.307692818e-06 0.009830322944 -0.9999437349 0.003986459645 0
-3.986652665e-05 -2.995295774 3.797104505e-05 -0.008474039371 0.9999315214 0.008071135304 1.836709923e-40
-0.08004131352 -2.98633112 -0.1979544794 -0.02168027079 -0.9966187474 -0.07925300111 1.836709923e-40
-0.1596085268 -2.962385555 -0.3948988487 0.04582811657 0.9899396945 0.1338625604 9.183549616e-41
-0.238559755 -2.926758839 -0.5904183462 0.06822807683 0.98188076 0.1767911275 9.183549616e-41
-0.3163344221 -2.875392021 -0.782959327 0.0888371016 0.9717688983 0.2185707612 1.836709923e-40
-0.3928311911 -2.811645235 -0.9722931312 0.115190461 0.950896971 0.2872735773 3.214242366e-39
-0.4665872521 -2.727276257 -1.154857804 -0.1500569895 -0.9194083259 -0.3635536138 1.836709923e-40
-0.5390254117 -2.635332896 -1.334153591 0.1688332208 0.8892183337 0.4251894855 2.663229389e-39
-0.6079670074 -2.525414469 -1.504763087 0.1978093731 0.8515952357 0.4854451631 2.755064885e-40
-0.6723995123 -2.397446971 -1.664182031 0.2114370439 0.8172623988 0.5360751327 3.673419846e-40
-0.7344423522 -2.262439465 -1.817769254 -0.2390892916 -0.7649835487 -0.5980271573 4.591774808e-40
-0.6393441042 -2.284181851 -1.830986196 0.209725735 0.7730587686 0.59866122 2.755064885e-40
-0.8489094338 -1.963567372 -2.101069003 0.2698803035 0.6569714886 0.7039553146 9.183549616e-41
-0.9020686632 -1.802656272 -2.232601144 -0.3021823228 -0.6061376628 -0.7357193605 9.183549616e-41
-0.7357105967 -1.669615307 -2.400728517 0.2515684257 0.5541251645 0.7935103208 1.836709923e-40
-0.9890415811 -1.441517756 -2.447717234 0.3400584153 0.4769413278 0.8104858074 9.183549616e-41
-1.023277399 -1.24746653 -2.532640093 -0.3474480676 -0.4181447446 -0.8393061497 1.836709923e-40
-1.053086472 -1.048511645 -2.6064764 -0.3560335831 -0.3424290856 -0.8694724889 1.836709923e-40
-1.076682657 -0.8439881714 -2.665013239 0.3702506149 0.2773679936 0.8865559646 0
-1.09914578 -0.6382213236 -2.720304915 -0.3903584657 -0.2033257752 -0.8979303411 4.224432823e-39
-1.112827293 -0.4271031926 -2.754266887 -0.3945149095 -0.1402415472 -0.908124603 4.224432823e-39
-1.120775445 -0.2139898545 -2.774031698 -0.385109254 -0.05893556275 -0.9209872214 4.224432823e-39
-1.121287884 -5.704149913e-05 -2.775441748 -0.3828146578 0.008624494104 -0.9237849078 4.224432823e-39
-1.118956085 0.2136089864 -2.769690788 -0.3852746388 0.07869147824 -0.9194406473 9.183549616e-41
-1.108695602 0.4256269033 -2.744234979 -0.3753556575 0.1342010616 -0.9171140635 1.836709923e-40
-1.317229942 0.6169172898 -2.621968074 0.4499697476 -0.1925662414 0.8720352453 2.755064885e-40
-1.242734571 1.067335921 -2.515746403 0.4148461193 -0.3587472888 0.8361836402 2.755064885e-40
-1.05501041 1.050402869 -2.611085133 0.3600115917 -0.3534282758 0.8634118992 2.755064885e-40
-1.025528911 1.250211093 -2.53800016 0.3493520776 -0.4241716822 0.8354828005 9.183549616e-41
-0.9894557677 1.442263565 -2.448752282 0.3357055189 -0.4886777738 0.8052923929 9.183549616e-41
-0.9470411614 1.624789192 -2.343864292 0.3192869745 -0.5636853558 0.7617838589 9.183549616e-41
-0.8986212923 1.795725929 -2.224259485 -0.3046852258 0.6156501765 -0.726733633 9.183549616e-41
-0.8492466233 1.964398022 -2.101965445 -0.2876928363 0.6648552694 -0.6893477371 9.183549616e-41
-0.7948016212 2.121698308 -1.96719574 -0.2667423043 0.7148562327 -0.6463970217 6.428484731e-40
-0.7356757786 2.2663879 -1.820842778 -0.2379368807 0.7595336797 -0.6053879996 9.183549616e-41
-0.6730606541 2.400066647 -1.665856391 -0.2170225553 0.805644244 -0.5512155319 9.183549616e-41
-0.6070602382 2.521316896 -1.50243052 0.1827662787 -0.8546128698 0.486038404 3.214242366e-39
-0.5378484264 2.629029136 -1.3311073 0.1640405343 -0.8871658794 0.4313089443 1.469367939e-39
-0.4663505936 2.725604468 -1.154195401 -0.140133232 0.9206332951 -0.3644132451 4.316268319e-39
-0.3922429217 2.806590417 -0.9707576019 -0.1098240991 0.9509560339 -0.2891734581 4.316268319e-39
-0.3159048219 2.87096117 -0.7818857751 0.09177920012 -0.9693381673 0.2279475726 0
-0.2382406638 2.922972737 -0.5896476481 0.07454779164 -0.9795894239 0.1866740137 0
-0.1596314718 2.964308306 -0.3951390422 -0.05844386701 0.9887755637 -0.1375034509 0
0.03983809718 2.986597042 -0.2502309224 0.006786528376 0.9957433223 -0.09191941664 0
1.55543171e-05 2.99841781 6.307692818e-06 0.009830322944 -0.9999437349 0.003986459645 0
-3.986652665e-05 -2.995295774 3.797104505e-05 -0.008474039371 0.9999315214 0.008071135304 1.836709923e-40
-0.1515865856 -2.986978213 -0.1600780566 -0.04271594275 -0.9970548351 -0.06369461608 1.836709923e-40
-0.1316692049 -2.962276867 -0.4050508389 0.03634491339 0.9898516318 0.137378289 9.183549616e-41
-0.1390137584 -2.939609994 -0.5517436753 0.03980090246 0.9849080626 0.1684398896 9.183549616e-41
-0.2609216421 -2.875011373 -0.8030270769 0.07251663465 0.9716122332 0.2251910435 1.836709923e-40
-0.3240433886 -2.811569749 -0.9973023875 0.09542774812 0.9513737971 0.2928846926 3.214242366e-39
-0.3850389102 -2.728368694 -1.185035498 -0.1255017422 -0.9192900883 -0.3730349128 2.755064885e-40
-0.6835406888 -2.674748266 -1.178491856 -0.2199776787 -0.9012270805 -0.3733625186 0
-0.5017089976 -2.526347368 -1.544031317 -0.1675286993 -0.8540821121 -0.4924204309 1.836709923e-40
-0.556337775 -2.40499587 -1.712114652 -0.1876077985 -0.8143932507 -0.5491511151 2.755064885e-40
-0.6076461069 -2.269279353 -1.870050892 -0.2094877408 -0.7639674005 -0.6103021362 2.755064885e-40
-0.8144128907 -2.165714128 -1.89764669 0.2649354589 0.7272112497 0.6332242895 2.755064885e-40
-0.7020795987 -1.968673611 -2.160727306 0.2350735171 0.6582079734 0.7151941732 1.836709923e-40
-0.7454462479 -1.805981851 -2.294077102 0.2481376598 0.6120515405 0.7508798929 1.836709923e-40
-0.7841752607 -1.630653435 -2.412865058 0.2691708994 0.5477708528 0.7921452643 1.836709923e-40
-0.8167532472 -1.443070149 -2.513396198 -0.2793820143 -0.4797310316 -0.8317474541 9.183549616e-41
-0.8459039481 -1.250105465 -2.603491852 0.2796526328 0.4106870639 0.8678309401 1.836709923e-40
-0.8673959289 -1.046950429 -2.669542316 0.288086023 0.3449922581 0.8933010608 1.836709923e-40
-0.8882264035 -0.8440109998 -2.73373797 -0.3006598504 -0.2803803166 -0.9115868211 2.755064885e-40
-0.9067985665 -0.6383449411 -2.790735026 -0.3118572979 -0.2168135799 -0.9250604831 4.224432823e-39
-0.9190013515 -0.4275848869 -2.828419794 0.3043691793 0.1405857138 0.9421226352 1.836709923e-40
-0.9287548146 -0.21482104 -2.857920492 -0.3197703169 -0.06319276204 -0.9453854342 2.755064885e-40
-0.927605679 1.906396246e-05 -2.854761042 -0.3290992 0.01131058523 -0.9442276141 0
-0.923275777 0.2136712781 -2.841910087 0.3327549302 -0.08153457732 0.9394819153 1.836709923e-40
-0.9138023407 0.4253211498 -2.812854834 -0.3174253372 0.1351563625 -0.9386021058 1.836709923e-40
-0.9025632263 0.6355997993 -2.778033278 -0.30930698 0.1963599786 -0.9304686727 1.836709923e-40
-0.8899991011 0.8456559704 -2.739150959 0.2948607794 -0.2701630883 0.9165527953 1.836709923e-40
-0.8715012363 1.051739229 -2.682165322 -0.2921165415 0.3369869252 -0.8950462214 9.183549616e-41
-0.8464510669 1.250902868 -2.604674607 -0.2911005481 0.4269422509 -0.8561429701 0
-0.8167549641 1.443249737 -2.513375645 0.2777648203 -0.4927721814 0.8246346353 1.836709923e-40
-0.7809830146 1.624233362 -2.403513771 -0.2642344575 0.5560714905 -0.788013102 9.183549616e-41
-0.7424469153 1.798576843 -2.284979193 -0.2523586989 0.6167317145 -0.7456252942 9.183549616e-41
-0.7005652481 1.964436386 -2.156123366 -0.2396932399 0.6577460499 -0.7140849282 9.183549616e-41
-0.656528184 2.124404789 -2.020334283 0.2329525963 -0.7155618603 0.6585623067 9.183549616e-41
-0.6077642945 2.269659056 -1.870374121 0.2129245946 -0.7603163727 0.6136628801 0
-0.555389945 2.400821335 -1.709288608 0.1729200542 -0.8113736744 0.5583649481 3.214242366e-39
-0.5001283064 2.517728613 -1.538993784 -0.1516172996 0.852098839 -0.5009388815 9.183549616e-41
-0.4431583218 2.625767991 -1.363748421 0.137741069 -0.886111076 0.4425319863 1.469367939e-39
-0.3844393489 2.723627757 -1.183089615 -0.1171320287 0.9188903859 -0.3767234352 4.316268319e-39
-0.3233604554 2.804795156 -0.9951634232 -0.09571991586 0.9489635736 -0.3005092906 4.316268319e-39
-0.2605918624 2.871048696 -0.8020399005 0.07678190512 -0.9692913597 0.2336210587 0
-0.1965224129 2.923340953 -0.6049032101 0.06486643947 -0.9793966383 0.1912447903 0
-0.1317040865 2.964737743 -0.4053758352 -0.0479162324 0.9888912803 -0.1407056164 0
-0.06601171422 2.988557321 -0.2032441979 0.03235098266 -0.9964037668 0.07831313742 0
1.55543171e-05 2.99841781 6.307692818e-06 0.009830322944 -0.9999437349 0.003986459645 0
-3.986652665e-05 -2.995295774 3.797104505e-05 -0.008474039371 0.9999315214 0.008071135304 1.836709923e-40
-0.05169352457 -2.986084367 -0.2071443066 -0.01302996544 -0.9965481487 -0.08198784856 1.836709923e-40
-0.1031019182 -2.962254597 -0.4132474532 0.0254432958 0.9899148445 0.1393601067 9.183549616e-41
-0.04484380657 -2.962088224 -0.417236432 0.00965311404 0.9901182615 0.1399022717 1.836709923e-40
-0.2042168766 -2.874029102 -0.8190301608 0.05564342241 0.9711983434 0.2316842407 1.836709923e-40
-0.2538542555 -2.81382541 -1.018186428 -0.07197852837 -0.9514973334 -0.2991185652 3.214242366e-39
-0.2983075191 -2.781091254 -1.093119058 0.08806986071 0.9412350605 0.3260678772 3.214242366e-39
-0.3479320841 -2.633901783 -1.395472204 0.1126425336 0.8887075114 0.4444216677 0
-0.3930849253 -2.528358973 -1.57643643 -0.1314172281 -0.8555073865 -0.500835925 9.183549616e-41
-0.4361573555 -2.408225587 -1.748995179 0.1505297558 0.8131128723 0.5623061884 1.836709923e-40
-0.4764455884 -2.272672784 -1.910645395 -0.1649501996 -0.7646105134 -0.6230266402 2.755064885e-40
-0.5144594389 -2.126342714 -2.063100428 0.1793550761 0.7117472705 0.6791521035 1.836709923e-40
-0.5497209279 -1.968721528 -2.204497239 0.194109583 0.656537301 0.7288897325 1.836709923e-40
-0.5838854494 -1.806598931 -2.34132451 -0.2001788101 -0.6092712861 -0.7672789219 1.836709923e-40
-0.6133166978 -1.629240628 -2.459617777 0.2069510646 0.5479889137 0.8104809728 1.836709923e-40
-0.7609681248 -1.655003657 -2.404745828 0.2618873984 0.5525506093 0.7912665889 1.836709923e-40
-0.6624108826 -1.250322602 -2.656693397 0.2230565854 0.407641711 0.8854795283 2.755064885e-40
-0.6796497706 -1.047851101 -2.725940299 -0.2289090293 -0.3479602862 -0.9091338161 2.755064885e-40
-0.6948284387 -0.8432960592 -2.786755234 0.2301893536 0.2844922569 0.9306325898 1.836709923e-40
-0.7093417069 -0.6378433039 -2.845014384 0.2362038069 0.2149138577 0.9476390639 0
-0.7194689983 -0.4275711404 -2.885559361 -0.2433763502 -0.1398418215 -0.9597980085 1.836709923e-40
-0.7236656183 -0.2139418968 -2.902492158 0.2477050442 0.07468920652 0.9659522418 2.663229389e-39
-0.7266925671 -2.296032637e-06 -2.914455992 0.2513769475 0.0006227014097 0.9678890652 1.836709923e-40
-0.7212342169 0.2132397617 -2.893699629 0.2639480489 -0.07653709284 0.9614954503 2.755064885e-39
-0.7137174908 0.4243523818 -2.864271694 -0.2617862792 0.1455894543 -0.9540815766 1.836709923e-40
-0.7060126801 0.6351423528 -2.832492675 -0.2523632454 0.2034784835 -0.9459964583 1.836709923e-40
-0.6974548928 0.8464381812 -2.797260782 -0.2369113204 0.2701661743 -0.9332112647 9.183549616e-41
-0.5139427822 1.188642616 -2.725792557 0.1604842687 -0.3926990483 0.9055563246 1.836709923e-40
-0.6640496843 1.253660679 -2.663475136 0.2182062338 -0.4181243393 0.8817925359 9.183549616e-41
-0.639438095 1.443613746 -2.564719151 0.208214793 -0.4988367781 0.8413135377 9.183549616e-41
-0.6117470645 1.62517926 -2.453518313 -0.2037412674 0.5556796938 -0.80604564 9.183549616e-41
-0.5808580533 1.797376232 -2.32971324 0.1972897068 -0.6117408887 0.7660612617 9.183549616e-41
-0.5484659261 1.964469211 -2.199776544 0.1818161089 -0.6588111355 0.7300073906 9.183549616e-41
-0.5132166268 2.121417922 -2.058400892 0.1668307907 -0.7143636737 0.6795969607 9.183549616e-41
-0.475684241 2.269168427 -1.907790586 -0.162850657 0.7647556251 -0.6234007518 9.183549616e-41
-0.4351833109 2.403009823 -1.745390268 -0.1455748668 0.8131632456 -0.5635365952 3.214242366e-39
-0.3921159932 2.52204987 -1.572729275 0.1308549396 -0.8525915587 0.5059294603 9.183549616e-41
-0.3470047981 2.626651257 -1.391807124 0.1135046208 -0.8864287685 0.4487323695 1.285696946e-39
-0.3009680269 2.723785817 -1.207111026 0.09466782482 -0.9198252202 0.3807355608 4.316268319e-39
-0.4234176262 2.813752825 -0.9324145741 0.1163647913 -0.9530386126 0.2796008553 4.316268319e-39
-0.2040159149 2.871495478 -0.8183812562 0.06328274476 -0.9693440536 0.2374181962 0
-0.1538465991 2.923557869 -0.6171826642 0.05292501252 -0.9793407577 0.1951681925 0
-0.1031138597 2.965011258 -0.4136162609 -0.03849985557 0.9889014765 -0.1434978428 0
-0.05167687027 2.988740052 -0.2073704157 0.02718507573 -0.9964338364 0.07987854084 0
-0.151472903 2.986971607 -0.1658525398 0.05905700707 -0.9963810786 0.06113113809 0
-0.1755882619 -2.992361406 0.06623441934 -0.05707707972 -0.9981873736 0.01908334774 9.183549616e-41
-0.03711353862 -2.985856272 -0.2102241588 -0.007698947007 -0.9965122805 -0.08309031888 1.836709923e-40
-0.07398027436 -2.961518506 -0.4193430631 0.01967073757 0.9901023247 0.1389620406 1.836709923e-40
-0.1105670958 -2.925849652 -0.6269413626 0.02943857427 0.9818633633 0.1872904325 9.183549616e-41
-0.1466037852 -2.874546499 -0.8314080933 0.04032228109 0.9712961401 0.2344310599 9.183549616e-41
-0.182225775 -2.814096268 -1.033501863 0.05107496805 0.9513770201 0.3037648981 1.836709923e-40
-0.2459167864 -2.722862287 -1.237417758 -0.07602792706 -0.9171092907 -0.3913186723 1.19386145e-39
-0.2498274562 -2.634788881 -1.416789633 0.08392415546 0.8893702532 0.4494188346 9.183549616e-41
-0.2821792489 -2.528543506 -1.600129051 -0.09573995375 -0.8553239443 -0.5091707096 0
-0.3134556386 -2.411355644 -1.777353659 -0.1057982477 -0.8137910341 -0.5714463086 2.204051908e-39
-0.3424331912 -2.275864145 -1.94182733 0.1145832754 0.7669992326 0.6313341827 2.204051908e-39
-0.3699648167 -2.13093108 -2.098485431 0.1183295541 0.7101478024 0.6940376181 9.183549616e-41
-0.3956165481 -1.974160634 -2.24370814 0.1306732368 0.6543045673 0.7448557165 9.183549616e-41
-0.3010725474 -1.744432301 -2.437696548 -0.08584371202 -0.5898936397 -0.8029049451 0
-0.4404026338 -1.629861306 -2.497264648 0.1495081077 0.5504685755 0.8213596491 2.755064885e-40
-0.4587322796 -1.442472973 -2.601921276 0.1483895443 0.4643670425 0.8731230113 2.755064885e-40
-0.4741032275 -1.246884296 -2.688827771 0.1520930646 0.41300527 0.8979389437 9.183549616e-41
-0.4872687568 -1.046561732 -2.763309569 -0.1584845873 -0.3495502238 -0.9234160907 9.183549616e-41
-0.4995709005 -0.8447061597 -2.833181845 -0.163278245 -0.2953534388 -0.9413323329 1.836709923e-40
-0.5096449278 -0.6384520035 -2.890462125 -0.1642879559 -0.2051218444 -0.9648494683 9.183549616e-41
-0.5156493333 -0.4269506742 -2.924392841 -0.1711967398 -0.1451545483 -0.9744854198 1.836709923e-40
-0.5196472896 -0.2140299682 -2.947066697 0.1727429097 0.07135645341 0.9823788188 2.755064885e-40
-0.5212769829 -7.950866025e-06 -2.956294215 -0.1749479267 -0.004184051673 -0.9845687973 3.673419846e-40
-0.5194574069 0.213953093 -2.946074137 -0.1903813879 0.07678265866 -0.9787028918 2.755064885e-40
-0.3861391375 0.3327369222 -2.956425031 0.1435359445 -0.1139841467 0.9830590252 2.755064885e-40
-0.5089764063 0.6376273898 -2.886593345 -0.1931917388 0.2102884053 -0.9583609647 9.183549616e-41
-0.5008403321 0.8466928669 -2.839897053 -0.1829508463 0.2741744803 -0.9441172291 9.183549616e-41
-0.4899821172 1.052194056 -2.778410937 0.1695576008 -0.3422624254 0.924178907 0
-0.4761997766 1.25281709 -2.701210012 0.1510633395 -0.4257343007 0.8921491875 0
-0.4587207753 1.442776925 -2.601814961 0.1465165647 -0.4917403143 0.8583264877 9.183549616e-41
-0.4388404554 1.624173343 -2.488739212 -0.1464917753 0.5550880079 -0.8187902438 9.183549616e-41
-0.4169267883 1.797325314 -2.364498064 0.1344467021 -0.6160649085 0.7761366586 9.183549616e-41
-0.3931626974 1.961671567 -2.229574841 0.1234693547 -0.6643861142 0.7371203495 3.030571373e-39
-0.3685105751 2.122232868 -2.089967608 0.115630035 -0.7169943887 0.6874218076 3.030571373e-39
-0.3411070003 2.266967921 -1.934500771 0.1062279282 -0.7625214278 0.6381823403 9.183549616e-41
-0.3122286323 2.401955012 -1.77075732 0.09333199839 -0.8092467446 0.5800076244 9.183549616e-41
-0.2813465709 2.520925549 -1.595562845 0.08931439632 -0.8516802509 0.5163948963 9.183549616e-41
-0.24905876 2.626483327 -1.412568965 0.0817777458 -0.8882336345 0.4520546547 9.183549616e-41
-0.216037691 2.723889634 -1.225204385 0.06804905061 -0.9195348103 0.3870724213 4.316268319e-39
-0.1816902327 2.805135992 -1.030611735 0.06003207897 -0.9494857498 0.3080145457 3.030571373e-39
-0.1464069438 2.871051039 -0.830511688 0.04699592448 -0.9694208504 0.2408621969 0
-0.1104147292 2.923958368 -0.6265106838 0.04189939619 -0.9797017902 0.1960327598 0
-0.07401652094 2.965304764 -0.4198457516 -0.02891367127 0.9889175385 -0.1456231492 0
-0.0588267086 2.993108025 -0.13348026 0.02804360789 -0.9985922965 0.04502201066 0
1.55543171e-05 2.99841781 6.307692818e-06 0.009830322944 -0.9999437349 0.003986459645 0
-3.986652665e-05 -2.995295774 3.797104505e-05 -0.008474039371 0.9999315214 0.008071135304 1.836709923e-40
-0.02235540381 -2.985639218 -0.2122800491 -0.0023026338 -0.9964773757 -0.08383040991 1.836709923e-40
-0.04453628036 -2.961276107 -0.4234437758 0.01107199115 0.9900213104 0.1404820844 1.836709923e-40
-0.06655974047 -2.925486497 -0.633055646 0.01609883807 0.9818229163 0.1891152783 9.183549616e-41
-0.08828151841 -2.875295844 -0.8397943408 0.02005159655 0.971543243 0.2360119922 9.183549616e-41
-0.1096543012 -2.813061818 -1.043360903 -0.02900371795 -0.9515827304 -0.3060213906 1.836709923e-40
-0.1303778498 -2.73122218 -1.240392698 -0.04348155292 -0.9214324348 -0.3860979445 3.214242366e-39
-0.1504153027 -2.635405764 -1.431084359 0.04871909689 0.8889495607 0.4554065526 0
-0.1701005328 -2.532284373 -1.618132067 -0.05665161457 -0.8569834917 -0.5122205478 9.183549616e-41
-0.1886260355 -2.410225011 -1.794033095 -0.06654722872 -0.8161697044 -0.5739673161 9.183549616e-41
-0.2061113126 -2.275269566 -1.960623603 -0.07174591407 -0.7606365466 -0.6452011839 1.469367939e-39
-0.2228467547 -2.132314354 -2.120435157 0.07194507669 0.7136101955 0.6968388585 1.469367939e-39
-0.009259152725 -2.087214237 -2.174343858 0.00751821483 0.6956950228 0.7182979268 0
-0.2520674764 -1.80524684 -2.398124253 0.0842558235 0.6067955098 0.7903797603 9.183549616e-41
-0.264878705 -1.630220621 -2.52291763 0.06952850881 0.5372620696 0.8405446181 2.755064885e-40
-0.275889496 -1.441901353 -2.6263436 0.0752384607 0.4720263473 0.8783679761 3.673419846e-40
-0.2850285274 -1.245196124 -2.711645859 0.08619360132 0.4132517228 0.9065283651 0
-0.2930363982 -1.045394315 -2.78745924 0.09069460409 0.3498089453 0.9324206082 0
-0.06235483005 -0.7373435925 -2.904175747 0.01858912628 0.252651603 0.9673787324 1.102025954e-39
-0.3066887218 -0.6382490493 -2.917990469 -0.1006411143 -0.2063933139 -0.973279593 9.183549616e-41
-0.3105313562 -0.4271381245 -2.95450561 -0.1036402304 -0.1456008055 -0.9838999482 2.755064885e-40
-0.3128104926 -0.214035014 -2.976183004 -0.1089153104 -0.07898467036 -0.9909081072 2.755064885e-40
-0.3138384759 -1.118158862e-05 -2.985845715 0.1103223723 0.004874149151 0.9938839051 3.673419846e-40
-0.3136806972 0.2144942051 -2.984375944 -0.1055472235 0.05625672849 -0.9928217182 2.755064885e-40
-0.3101403186 0.42661344 -2.950834015 -0.1055210498 0.1379622037 -0.9848003546 9.183549616e-41
-0.3067854381 0.6384184401 -2.91876534 0.1053301577 -0.2076874216 0.9725078369 0
-0.3017421389 0.8475796096 -2.870793454 -0.101430033 0.2812048435 -0.9542723848 0
-0.2949286293 1.052456428 -2.805865101 -0.09923889631 0.3617377558 -0.9269829758 0
-0.2864394812 1.251814753 -2.725739017 -0.09103530567 0.4253063534 -0.900459371 0
-0.2759961644 1.442423467 -2.626794955 -0.08131307857 0.4945802707 -0.8653199056 9.183549616e-41
-0.2641072401 1.624274976 -2.513393347 -0.07211845502 0.5610034093 -0.8246660556 3.030571373e-39
-0.2508717824 1.796461039 -2.386724807 0.07475264397 -0.616870713 0.783506583 3.030571373e-39
-0.2368830348 1.963665922 -2.253785267 0.0782548583 -0.6578882509 0.7490388684 0
-0.2217525308 2.121461908 -2.109836375 0.07180833567 -0.7171289375 0.6932313105 0
-0.2053888919 2.267636324 -1.954144024 -0.06741185588 0.7654930464 -0.639903147 0
-0.1877452185 2.398950178 -1.7860618 -0.05442958165 0.8106863971 -0.582945097 9.183549616e-41
-0.1693769018 2.521009291 -1.611334532 0.0494379598 -0.8492712077 0.5256370458 9.183549616e-41
-0.1499364385 2.626639187 -1.42655699 -0.04838710901 0.8869143607 -0.4593926473 9.183549616e-41
-0.1300068298 2.723689579 -1.237200537 -0.0461165209 0.9190516593 -0.3914298329 4.316268319e-39
-0.1093596703 2.805430307 -1.040864353 0.03978954624 -0.9490456111 0.3126167303 3.030571373e-39
-0.08812031786 2.871717869 -0.8388683207 0.03252980045 -0.9693245084 0.2436222679 0
-0.06642836599 2.92368709 -0.6326292618 0.02893345606 -0.9796186493 0.1987716205 0
-0.04457012262 2.966142711 -0.4241193805 0.0171946614 -0.9893063493 0.144835392 0
-0.02231204475 2.989059079 -0.2125715242 0.01779348763 -0.9964168672 0.08268505608 0
1.55543171e-05 2.99841781 6.307692818e-06 0.009830322944 -0.9999437349 0.003986459645 0
-3.986652665e-05 -2.995295774 3.797104505e-05 -0.008474039371 0.9999315214 0.008071135304 1.836709923e-40
-0.00748394977 -2.985512948 -0.2133162736 -0.00216173078 0.9965359626 0.08313484307 1.836709923e-40
-0.01488647335 -2.962168289 -0.4256486428 0.001855741798 0.9900709361 0.1405563864 1.836709923e-40
-0.02222804925 -2.925149609 -0.6360867971 0.004246889244 0.9816837418 0.1904704568 9.183549616e-41
-0.02947948566 -2.874821835 -0.8437855935 0.004644086133 0.9711890488 0.2382651129 9.183549616e-41
-0.03659416903 -2.811828847 -1.04806853 0.005633832774 0.9520844084 0.3057834842 1.836709923e-40
-0.04357494761 -2.735395442 -1.248235951 0.01156492662 0.9208893489 0.3896524855 3.214242366e-39
-0.05029789754 -2.639887343 -1.440398852 -0.01573415357 -0.8889306776 -0.4577714351 1.19386145e-39
-0.05682027485 -2.533032189 -1.626479599 0.01998966099 0.8580465378 0.513182767 0
-0.06310250078 -2.412271522 -1.804320482 -0.02745589366 -0.814254006 -0.5798591101 9.183549616e-41
-0.06902345007 -2.280811496 -1.975082013 0.02570488448 0.7570344662 0.6528691108 9.183549616e-41
-0.07440654038 -2.131355827 -2.129972522 0.02642946628 0.7100737528 0.703631117 0
-0.07942473841 -1.97203049 -2.274448256 0.02629678889 0.655291572 0.7549181641 0
-0.08398857945 -1.802326032 -2.406137135 0.02314763168 0.6007560854 0.7990971862 0
-0.08814178904 -1.624292986 -2.525984267 0.01435237892 0.5331528976 0.8458971551 1.469367939e-39
-0.09191605468 -1.438582651 -2.632978295 -0.01388169399 -0.4756442343 -0.8795282036 3.673419846e-40
-0.0951706823 -1.244245929 -2.722928804 0.01399131084 0.4211476723 0.9068841609 1.102025954e-39
-0.09793036142 -1.046147302 -2.803273174 0.02656549729 0.3574601084 0.9335505049 1.102025954e-39
-0.09847050521 -0.9280854238 -2.845723373 -0.0298590527 -0.3065820279 -0.9513757918 9.183549616e-41
-0.1022700511 -0.6374816501 -2.928663497 -0.03522700887 -0.2110824456 -0.9768332811 1.836709923e-40
-0.1035990201 -0.4267962319 -2.966663478 -0.03367177176 -0.1477625587 -0.9884495121 9.183549616e-41
-0.299821869 -0.3470169508 -2.967451426 -0.1003915106 -0.1341482973 -0.9858629615 2.755064885e-40
-0.1049380567 -4.291131445e-05 -3.004508132 -0.03778459644 -0.006768000347 -0.9992629876 0
-0.1049455869 0.2147778191 -3.003078441 -0.04085204629 0.06044209398 -0.9973353817 9.183549616e-41
-0.1036935591 0.4271767896 -2.969293767 -0.03668718091 0.140274723 -0.9894326924 0
-0.1025483323 0.6390773018 -2.936088782 -0.0368305703 0.2097835759 -0.9770539189 0
0.08740032656 0.7427525756 -2.913585283 -0.03437099366 -0.2459522622 0.9686723489 9.183549616e-41
-0.09838501344 1.05186548 -2.81807409 -0.0300014746 0.3620440059 -0.9316780824 9.183549616e-41
-0.09547494228 1.250447954 -2.73611684 0.02419543159 -0.4275515088 0.9036671336 5.510129769e-40
-0.0920170816 1.440545953 -2.636363937 0.02211403467 -0.4935313862 0.8694468013 5.510129769e-40
-0.04166055496 1.889442923 -2.326659056 0.006990172168 -0.6358564358 0.7717756997 1.836709923e-40
-0.08372653757 1.795306735 -2.396892962 0.02152356044 -0.611484836 0.7909633567 9.183549616e-41
-0.07907053306 1.963153434 -2.264232754 0.02546465008 -0.6578472084 0.7527207995 1.836709923e-40
-0.07401680257 2.12082244 -2.119544381 0.02334458972 -0.7170597126 0.6966206993 0
-0.06854649216 2.266663052 -1.962894147 -0.02149818233 0.7659655508 -0.6425220643 9.183549616e-41
-0.06264087344 2.397273812 -1.793598376 -0.01912104341 0.810722975 -0.5851176322 9.183549616e-41
-0.0565118633 2.519199562 -1.618109527 -0.01722283415 0.8500225943 -0.5264645887 1.836709923e-40
-0.05003304825 2.626840111 -1.43364054 -0.02054357991 0.8865478381 -0.4621805838 9.183549616e-41
-0.0462143069 2.681534543 -1.337662695 -0.01248032197 0.9045261531 -0.4262354747 4.316268319e-39
-0.0365408222 2.807349664 -1.046590748 0.01289291733 -0.9488779036 0.3153799245 3.030571373e-39
-0.02942426275 2.873279745 -0.8433681279 0.01355703536 -0.969397164 0.2451231224 0
-0.02214296132 2.92423281 -0.6358359862 0.01526423164 -0.9796782356 0.1999938946 0
-0.01486309542 2.965354793 -0.4260813982 0.008920529061 -0.9893651029 0.1451796037 0
-0.007430744178 2.989275931 -0.2136302178 0.01240901025 -0.9964621452 0.08312165529 0
-0.1611444376 2.984195181 -0.1940269776 0.05923462093 -0.9960527635 0.06610712553 0
-3.986652665e-05 -2.995295774 3.797104505e-05 -0.008474039371 0.9999315214 0.008071135304 1.836709923e-40
0.007415622959 -2.985328567 -0.2133009562 -0.007583503936 0.9965103917 0.08312358033 1.836709923e-40
-0.0146066023 -2.940660159 -0.5616295408 0.00133889283 0.9851769551 0.171535928 1.836709923e-40
0.02219668514 -2.92521767 -0.6361006055 -0.009240968333 0.9816684549 0.190372396 9.183549616e-41
-0.111519939 -2.930097759 -0.606000581 0.03039110608 0.9825336698 0.1835864058 9.183549616e-41
0.03660293812 -2.811834358 -1.048067752 -0.01408618655 0.952719705 0.3035238755 9.183549616e-41
0.04363284978 -2.737357201 -1.24905884 0.0151893218 -0.9211250733 -0.3889702865 3.673419846e-40
0.05029556375 -2.642815825 -1.441889558 -0.01081860067 0.8896310431 0.4565518208 1.19386145e-39
-0.02815936948 -2.460583534 -1.736599849 -0.01484897612 -0.8364512536 -0.5478401303 9.183549616e-41
0.03766313881 -2.364894145 -1.868347483 -0.01144565103 0.7981752852 0.6023165374 9.183549616e-41
0.06899001058 -2.280794053 -1.975007009 0.02392244001 -0.7587266216 -0.6509697616 1.836709923e-40
0.07431760575 -2.133979316 -2.132619623 -0.0159372402 0.7089028333 0.705126072 1.836709923e-40
0.07937363978 -1.971330411 -2.273697893 -0.02396545153 0.6526375594 0.7572911417 0
0.08399628883 -1.800893123 -2.40424829 0.03539201632 -0.5989279726 -0.8000204303 0
0.08803736068 -1.621377235 -2.521351992 -0.03948693784 0.5300865442 0.8470236345 1.102025954e-39
0.09158378538 -1.43421498 -2.624827134 0.04106629715 -0.4711105381 -0.8811177107 1.102025954e-39
0.09512862738 -1.245169917 -2.72491755 0.04244134097 -0.4206694943 -0.9062206735 1.102025954e-39
0.09779274746 -1.045367916 -2.801207532 0.03585382932 -0.3561693226 -0.933733322 1.102025954e-39
0.1001047176 -0.842011002 -2.866374989 -0.03255444576 0.2940916459 0.9552226504 1.102025954e-39
0.1019929412 -0.6355962069 -2.920524288 -0.03337501519 0.2239857338 0.97402079 1.102025954e-39
0.1034983927 -0.4261319046 -2.96204511 -0.02370500125 0.1433064778 0.9893944241 9.183549616e-41
0.1043914863 -0.2139058246 -2.989025242 -0.02660053889 0.07384794132 0.9969146869 0
0.1050018382 -7.249491614e-05 -3.006461657 -0.03656980493 0.008739547852 0.9992928848 1.836709923e-40
0.1328307994 0.2293649397 -3.001419684 -0.03655081107 -0.07690603564 0.9963681548 9.183549616e-41
0.103927806 0.4283596682 -2.977075245 -0.0309540522 -0.1484928544 0.9884289144 0
0.2057829503 0.4797719498 -2.967852162 -0.06125730125 -0.1606544349 0.9851079614 1.836709923e-40
0.1007374186 0.847141701 -2.883203721 -0.04135514941 -0.2871756529 0.956984794 5.510129769e-40
0.09836170238 1.050825585 -2.815351168 -0.03959977322 -0.3642913063 0.9304427452 5.510129769e-40
0.09538245268 1.247903777 -2.730692758 -0.03786267722 -0.4320713022 0.9010442872 5.510129769e-40
0.09196128717 1.43866181 -2.633038798 0.0376451207 0.4946648827 -0.868268103 0
0.087946147 1.619968091 -2.519285889 -0.03733933084 -0.5535599305 0.8319718611 9.183549616e-41
0.08363184251 1.794079674 -2.395312062 0.0299323886 0.6118507469 -0.7904066774 0
0.07904164992 1.962642934 -2.263645343 0.02853277299 0.6572406432 -0.7531405033 9.183549616e-41
0.07400773259 2.120528069 -2.119253154 -0.02280447574 -0.7146986742 0.6990606276 0
0.06848252772 2.264353972 -1.960953349 -0.02126103511 -0.7654678176 0.643122841 9.183549616e-41
0.0626514835 2.397560327 -1.793802626 0.01834721956 0.8104947676 -0.5854584625 1.836709923e-40
0.05651843428 2.519062783 -1.61802947 -0.01553975398 -0.8504232467 0.5258695822 1.836709923e-40
0.05011257027 2.630417162 -1.435488051 0.02162379866 0.8841226749 -0.4667542255 9.183549616e-41
0.04342099449 2.724592158 -1.243626814 -0.01542637099 -0.9179084716 0.3964922003 4.316268319e-39
0.03655923599 2.807618887 -1.04667976 -0.008558538963 -0.9488806603 0.3155190073 3.030571373e-39
0.02948900795 2.873670045 -0.8434675252 -0.001605901137 -0.9695188005 0.2450116662 0
0.02223247968 2.925428142 -0.6360751878 -0.003712475349 -0.9796315515 0.2007691231 0
0.01489928465 2.964724235 -0.4259853285 -0.0001803336295 -0.9892980138 0.1459089008 0
0.007489214618 2.9894991 -0.2136486839 0.007013634655 -0.9965100298 0.08317793885 0
1.55543171e-05 2.99841781 6.307692818e-06 0.009830322944 -0.9999437349 0.003986459645 0
-3.986652665e-05 -2.995295774 3.797104505e-05 -0.008474039371 0.9999315214 0.008071135304 1.836709923e-40
0.02227706346 -2.985157426 -0.2122473515 -0.01299254603 0.9964859113 0.08274673574 1.836709923e-40
0.0444956527 -2.961921948 -0.4235461461 -0.01735476552 0.9901277956 0.1390890382 1.836709923e-40
0.06649329157 -2.925413491 -0.6330304329 -0.02671314264 0.9812610124 0.1908225182 1.836709923e-40
0.08824834461 -2.875450998 -0.8398264429 -0.03170020994 0.9708377334 0.2376324726 9.183549616e-41
0.1096418843 -2.812193215 -1.043076955 -0.03898219494 0.9522075301 0.3029541352 9.183549616e-41
0.1307028033 -2.736933382 -1.242727601 -0.04995106789 0.9235194515 0.3802850424 4.959116793e-39
0.1507555636 -2.642974243 -1.434932124 -0.04211514604 0.8902885298 0.4534453089 1.19386145e-39
0.1701255521 -2.534660849 -1.619501008 0.04638818434 -0.8592198835 -0.5094990953 0
0.1889355554 -2.415065121 -1.797562242 -0.06113034333 0.8128700829 0.5792282015 9.183549616e-41
0.2066146727 -2.281416687 -1.965836923 -0.06766258679 0.7608781004 0.6453574906 1.836709923e-40
0.2231280238 -2.135274949 -2.123415814 -0.07084257728 0.7113785478 0.699229498 1.836709923e-40
0.2378935505 -1.97139194 -2.262831385 0.08547993205 -0.6456787381 -0.7588096918 0
0.2516491093 -1.801794117 -2.393770059 0.09193236128 -0.5959277245 -0.7977584773 0
0.2634885719 -1.620147593 -2.507162499 -0.09562194187 0.5366580177 0.8383642504 2.755064885e-40
0.2743370489 -1.433212471 -2.610184438 -0.09261811949 0.471745615 0.8768568633 2.755064885e-40
0.2846800889 -1.243801642 -2.708702545 -0.09757228275 0.4203130042 0.9021178571 2.755064885e-40
0.2927008791 -1.043940974 -2.784355792 -0.09268743786 0.3707583342 0.9240926883 2.755064885e-40
0.3000369636 -0.8426056982 -2.854301884 0.09570904918 -0.2932280577 -0.9512397616 9.183549616e-41
0.3055857072 -0.635819644 -2.90721078 0.09890455521 -0.2226965303 -0.9698577959 4.591774808e-40
0.309982509 -0.4263246323 -2.94918901 -0.1008250222 0.1520548715 0.9832159635 2.755064885e-40
0.3130581274 -0.2142205305 -2.978799508 -0.09514519813 0.07107631035 0.9929227308 9.183549616e-41
0.3144399776 -6.827012079e-05 -2.992170157 -0.09882969669 0.007895169034 0.9950730412 1.836709923e-40
0.3141182294 0.2148699958 -2.98799704 -0.1097358715 -0.0702377029 0.9914760227 1.836709923e-40
0.3120180215 0.4290912875 -2.967768606 0.109629321 0.1448767633 -0.9833575827 5.510129769e-40
0.3078719846 0.6406511791 -2.928372869 -0.1084175972 -0.2205139965 0.96933957 5.510129769e-40
0.3013873865 0.84650119 -2.867075033 0.1100594683 0.284421628 -0.9523608827 5.510129769e-40
0.2940202211 1.04910243 -2.797306662 -0.1033691107 -0.3553953642 0.9289827566 9.183549616e-41
0.2851160171 1.245693796 -2.712796547 -0.1023865134 -0.4298974973 0.8970535902 1.836709923e-40
0.2750134133 1.436654239 -2.616698088 0.0965651695 0.4933209244 -0.8644707245 9.183549616e-41
0.2632362635 1.618522309 -2.504812664 0.09208103235 0.5506758867 -0.8296247051 0
0.2508124937 1.796160261 -2.386296561 0.08202191949 0.6083141457 -0.7894468348 0
0.2367449742 1.962446996 -2.252398584 0.07615228307 0.6581677822 -0.7490100135 0
0.1734733699 2.176130876 -2.054394956 -0.05790445544 -0.7328116882 0.6779632023 9.183549616e-41
0.2051542361 2.264933913 -1.951882716 0.0662845625 0.7651823121 -0.6403923688 9.183549616e-41
0.1876862627 2.398337663 -1.785616804 -0.05877557091 -0.8099542533 0.5835405211 1.836709923e-40
0.1693797498 2.521336621 -1.611563574 0.0553675814 0.853145696 -0.5187261824 1.836709923e-40
0.1501446261 2.630680656 -1.428642352 0.05293168616 0.8854806895 -0.4616515842 1.744874427e-39
0.1301360677 2.72631703 -1.238310188 -0.0469804022 -0.9178047096 0.3942427639 4.316268319e-39
0.1094747264 2.807664352 -1.041584625 -0.03337385685 -0.947877429 0.3168825734 3.030571373e-39
0.08826822423 2.874956996 -0.839671587 -0.02173041305 -0.9689004121 0.2464949911 0
0.06655771374 2.926241781 -0.633145175 -0.01878100549 -0.9797659347 0.199263612 0
0.04458133879 2.965369856 -0.4239962622 -0.01123601787 -0.989042121 0.1472054167 0
0.02236557212 2.989027885 -0.2125624527 0.001602614845 0.9964115524 -0.08462535021 0
-0.1740416842 2.988132939 0.1398534899 -0.06963039408 0.9967882818 0.03955666225 0
-3.986652665e-05 -2.995295774 3.797104505e-05 -0.008474039371 0.9999315214 0.008071135304 1.836709923e-40
0.03702345679 -2.984452935 -0.2101126169 -0.01768877453 0.9964427679 0.082394888 1.836709923e-40
0.07394185043 -2.961811896 -0.4193953142 -0.02539809868 0.9901706999 0.1375388008 1.836709923e-40
0.1104769705 -2.924867715 -0.6267469915 -0.03848420806 0.9813667083 0.1882507624 1.836709923e-40
0.1465832513 -2.874696865 -0.8314445256 -0.0471850396 0.971012177 0.234326533 9.183549616e-41
0.1821922567 -2.813068331 -1.033157911 -0.06045512026 0.9528167082 0.2974651224 9.183549616e-41
0.2169050601 -2.735079346 -1.229839186 -0.07417887982 0.9231093267 0.3773150735 3.673419846e-40
0.2506045027 -2.643422213 -1.421123149 0.08081375048 -0.8906020695 -0.4475456307 4.959116793e-39
0.2826247557 -2.533647041 -1.603099997 -0.08519544259 0.8587003788 0.5053468077 1.19386145e-39
0.3137286235 -2.414211656 -1.779421644 0.09927720167 -0.8124399903 -0.5745305035 0
0.3425778682 -2.276601154 -1.942608955 0.1163198498 -0.7598212894 -0.6396415407 9.183549616e-41
0.3702504658 -2.131460178 -2.099016204 -0.1318449316 0.7084512526 0.6933352268 1.836709923e-40
0.394850117 -1.969860771 -2.238915363 0.1405673449 -0.6471777094 -0.7492675317 9.183549616e-41
0.5660846583 -1.813378117 -2.325620207 0.198788355 -0.5979457461 -0.7764947358 1.836709923e-40
0.4379620971 -1.620967128 -2.483943028 0.1596464008 -0.5363949251 -0.8287300592 1.653038931e-39
0.4556050529 -1.432922204 -2.584108292 -0.1573684915 0.4695460388 0.8687702086 1.653038931e-39
0.4717979791 -1.240564529 -2.675630214 -0.1560310859 0.4282156785 0.890104282 3.673419846e-40
0.4876748623 -1.04740735 -2.765682441 -0.1577895408 0.3666550457 0.9168786933 3.673419846e-40
0.4987312216 -0.8431916087 -2.828276048 -0.1618554201 0.2921474743 0.9425776765 2.755064885e-40
0.507910315 -0.6362171657 -2.880527106 0.1699253559 -0.2225584707 -0.9599964065 3.673419846e-40
0.5151199236 -0.4264877659 -2.921412266 -0.1728967612 0.151242251 0.9732586971 2.755064885e-40
0.5200181483 -0.2142168282 -2.949162711 -0.1735014155 0.08623895093 0.9810505095 0
0.5228157862 -9.58212407e-06 -2.965581993 0.1653846834 -0.0008468851596 -0.9862287713 5.510129769e-40
0.5214367663 0.2148604272 -2.957253281 0.1724701465 0.07989447423 -0.9817692812 5.510129769e-40
0.5180983659 0.4289484011 -2.937845468 0.1772050332 0.1445666944 -0.9734982522 5.510129769e-40
0.5110513588 0.640236991 -2.898151741 0.1719095671 0.2171144817 -0.960889381 5.510129769e-40
0.5007571389 0.8467431012 -2.839703587 -0.1735141096 -0.2932184053 0.9401679747 9.183549616e-41
0.4881483766 1.04849769 -2.768412956 -0.1701758787 -0.3612090417 0.9168250643 1.836709923e-40
0.4740545757 1.246749557 -2.688469151 -0.1605688238 -0.4337627468 0.886604496 3.673419846e-40
0.4572023981 1.437683012 -2.592923826 -0.1513984083 -0.4921251224 0.8572580626 1.836709923e-40
0.4380141707 1.621037304 -2.48409089 -0.1440038627 -0.5488063085 0.8234528057 0
0.416573843 1.79577338 -2.362485193 0.1367929927 0.6075420735 -0.7824195205 1.19386145e-39
0.3931467475 1.961775162 -2.229643406 0.1306032719 0.658347955 -0.7412966718 1.19386145e-39
0.3678436323 2.118284339 -2.086148123 -0.1219785151 -0.7124700601 0.6910192872 1.19386145e-39
0.340889964 2.2654889 -1.933275154 -0.1113083861 -0.764704628 0.6346946314 1.836709923e-40
0.3119080371 2.399255851 -1.768826734 0.09655571759 0.8096392102 -0.5789312073 1.836709923e-40
0.2814685828 2.522212163 -1.596360176 -0.09682341046 -0.8552695641 0.5090571677 3.765255342e-39
0.2492863387 2.629189939 -1.413908146 0.08638369635 0.8842996839 -0.458859375 1.744874427e-39
0.2162590624 2.726979625 -1.22650607 -0.07154703263 -0.9194760359 0.3865809637 3.030571373e-39
0.1819025562 2.808393565 -1.031654219 -0.05748247446 -0.9479975657 0.3130437359 1.102025954e-39
0.1429484752 2.908928802 -0.6964491258 -0.03539555357 -0.9776538537 0.2072199244 0
0.1105760406 2.926567227 -0.627025442 -0.0319033029 -0.9797819333 0.197508335 0
0.07406247026 2.965659837 -0.4198943054 -0.0196700082 -0.9889994523 0.1466055053 0
0.0371421902 2.989248707 -0.2105043152 0.006915421783 0.9964456964 -0.08395326729 0
-0.05870345235 2.994137211 -0.1226906892 0.02917426199 -0.9986688521 0.04253688105 0
0.0937946518 -2.992402776 -0.0412886108 -0.03515804212 0.9991448493 0.02175964607 1.836709923e-40
0.05157826093 -2.984316341 -0.2070088886 -0.02444865433 0.996435773 0.08073421575 1.836709923e-40
0.1030182911 -2.962389971 -0.4133104189 -0.03764917116 0.9903635301 0.1332764729 1.836709923e-40
0.1539043058 -2.924598296 -0.6174608299 -0.05281558447 0.9812444951 0.1853908167 1.836709923e-40
0.2041672391 -2.873794452 -0.8189789944 -0.0631335944 0.9709894812 0.2306373273 1.836709923e-40
0.2535613355 -2.810040507 -1.01700152 -0.07983580565 0.9525761267 0.2936408808 9.183549616e-41
0.4673079758 -2.726858496 -1.150722687 -0.1618656288 0.9213588047 0.3534083632 2.755064885e-40
0.349154318 -2.642905867 -1.399858297 -0.120388789 0.8920722955 0.4355612001 4.959116793e-39
0.3938298488 -2.532771914 -1.578898443 0.1384548391 -0.8596878448 -0.4916981462 4.959116793e-39
0.4366821816 -2.410745914 -1.750793398 0.1551670759 -0.8102186841 -0.5652157664 9.183549616e-41
0.4770241483 -2.275187885 -1.912816128 -0.1670954155 0.7586201544 0.6297416799 1.836709923e-40
0.5147237495 -2.127319857 -2.064099994 -0.1804505956 0.7076331716 0.6831492348 1.836709923e-40
0.5492882626 -1.967200554 -2.202882849 0.1955483757 -0.6471745152 -0.7368351102 1.836709923e-40
0.581503471 -1.799272066 -2.332175375 0.2052127737 -0.5928736681 -0.7787095294 1.836709923e-40
0.5625803393 -1.603544159 -2.468812876 -0.1973813033 0.5344381048 0.8218372912 1.836709923e-40
0.6347275535 -1.432671738 -2.545868114 0.2145874821 -0.4815224592 -0.8497578089 2.755064885e-40
0.6571981058 -1.240338115 -2.635604586 0.2144015786 -0.4247587029 -0.879552163 3.673419846e-40
0.679769792 -1.048000639 -2.726394936 -0.2220733062 0.3685102392 0.9027090618 3.673419846e-40
0.6971579863 -0.8462074087 -2.796192854 -0.2283674387 0.2915521683 0.928894852 3.673419846e-40
0.7112637693 -0.6396864139 -2.852861522 -0.2322723447 0.2218453657 0.9470133007 3.673419846e-40
0.7189161647 -0.4273138359 -2.883554114 -0.2253238856 0.1547569537 0.9619144618 3.673419846e-39
0.7259006441 -0.2147737743 -2.912016947 -0.2253100111 0.08587411817 0.9704952523 9.183549616e-41
0.7269993283 6.246872694e-05 -2.915822154 0.2424984059 0.01227955317 -0.9700740877 5.510129769e-40
0.7242111108 0.2141185009 -2.904638722 -0.2436766632 -0.08350361725 0.9662550542 5.510129769e-40
0.7185028393 0.427019186 -2.881740531 -0.2471452798 -0.148348355 0.9575552079 9.183549616e-41
0.7099005617 0.638321119 -2.847116326 0.2474928703 0.2146566357 -0.944812049 9.183549616e-41
0.6965495467 0.8454203509 -2.793679524 0.2399843739 0.2928694899 -0.9255457645 0
0.6802445403 1.048758582 -2.728284267 0.2323267691 0.356449674 -0.9049684537 2.755064885e-40
0.6601566568 1.246200061 -2.647745727 -0.2224276031 -0.4343473534 0.8728506963 3.673419846e-40
0.6372262806 1.438281188 -2.555759034 0.215008385 0.4846848425 -0.8478514008 1.836709923e-40
0.6101387252 1.620796893 -2.447134494 -0.2022927591 -0.5496857302 0.8105080121 1.19386145e-39
0.5805097208 1.796228931 -2.3282498 0.1878500827 0.6079468835 -0.7714356313 9.183549616e-41
0.5478905935 1.96234408 -2.197420129 -0.1785763841 -0.6589705529 0.7306629082 0
0.5488919375 2.065289327 -2.100624652 -0.1767447929 -0.6946782933 0.6972684899 0
0.4752221462 2.266981374 -1.906005427 0.1520843162 0.7627872837 -0.6285108755 9.183549616e-41
0.4350799346 2.402438434 -1.744993994 0.144538812 0.8134238682 -0.5634271403 3.765255342e-39
0.3920504013 2.521620091 -1.572486567 0.1310342913 0.8547230082 -0.5022734253 3.765255342e-39
0.3472438176 2.628578525 -1.392746548 -0.1146549074 -0.8834015829 0.45437418 1.744874427e-39
0.3012431448 2.726449679 -1.208218205 -0.09437331661 -0.9204547225 0.3792845647 3.030571373e-39
0.2534122556 2.808126433 -1.016364403 -0.07551719648 -0.9481641295 0.3086777228 1.102025954e-39
0.2043094137 2.875861184 -0.819441528 -0.06010351331 -0.968759713 0.2406079512 0
0.1540736214 2.927286457 -0.6179163718 -0.04690154755 -0.9792114652 0.1973452589 0
0.1031911836 2.96605256 -0.4137652451 -0.02784539464 -0.9891640245 0.1441498059 0
0.05174042507 2.989479429 -0.2074209491 0.0121598151 0.9964829168 -0.08290920046 0
1.55543171e-05 2.99841781 6.307692818e-06 0.009830322944 -0.9999437349 0.003986459645 0
-3.986652665e-05 -2.995295774 3.797104505e-05 -0.008474039371 0.9999315214 0.008071135304 1.836709923e-40
0.06590145885 -2.983778531 -0.202858491 0.02713693247 -0.9964659831 -0.07949296493 1.836709923e-40
0.1315871823 -2.962437387 -0.4051067676 -0.04873481143 0.9899636753 0.1326530802 1.836709923e-40
0.1965721955 -2.924079983 -0.6051215024 -0.06487478842 0.9812050952 0.1817355852 1.836709923e-40
0.2272800423 -2.906602048 -0.6807383361 -0.06741361941 0.9793817771 0.1904382802 1.836709923e-40
0.3236120027 -2.807575907 -0.9960941674 -0.1044688378 0.9522315627 0.2869517605 9.183549616e-41
0.3850984061 -2.7288095 -1.185215211 -0.133076249 0.921464769 0.3649566979 2.755064885e-40
0.4454803582 -2.64010918 -1.37075706 -0.1503699202 0.8920689871 0.4261476381 2.755064885e-40
0.5021836443 -2.528607512 -1.545269234 0.1738574286 -0.8580805774 -0.4831886973 4.959116793e-39
0.5570745927 -2.408142897 -1.714302469 0.1881829294 -0.8104932053 -0.5546962676 0
0.6083331054 -2.271717053 -1.872061674 -0.2111154964 0.7584176029 0.6166303486 9.183549616e-41
0.8628935872 -1.959898008 -2.103046671 -0.289806359 0.6554660326 0.697407022 9.183549616e-41
0.5757197305 -2.008815075 -2.155503465 0.2145703927 -0.6588384851 -0.7210349486 1.836709923e-40
0.7429568335 -1.799751585 -2.286520768 -0.2536994854 0.5977533699 0.7604784546 9.183549616e-41
0.7788140093 -1.619712637 -2.396972752 -0.262068951 0.5407796691 0.799297951 2.755064885e-40
0.8112156678 -1.433472273 -2.496673329 -0.2718947357 0.4768262125 0.835888758 3.673419846e-40
0.8392884668 -1.240087687 -2.5829743 0.2773830312 -0.4284033334 -0.8599588583 3.673419846e-40
0.86870867 -1.048533204 -2.673611219 0.2862891659 -0.3711392199 -0.8833426249 3.673419846e-40
0.8911306615 -0.8468923635 -2.742770008 -0.2870979903 0.2981712078 0.9103124051 2.755064885e-40
0.9623399426 -0.4699892788 -2.820035573 0.3040976434 -0.1590085417 -0.9392768 1.836709923e-40
0.9220116961 -0.429071899 -2.838091158 -0.2972301321 0.1438157542 0.9439127488 1.836709923e-40
0.9282918952 -0.2148340454 -2.856983876 -0.3083823929 0.06988556902 0.9486918926 1.836709923e-40
0.9288192794 5.776233983e-05 -2.858604237 0.3093903855 0.01010640161 -0.9508814069 9.183549616e-41
0.9245324387 0.2139750945 -2.845424937 -0.3118128123 -0.08457481786 0.9463719513 9.183549616e-41
0.9151082601 0.4257103756 -2.816567401 -0.3109747961 -0.1531053346 0.9380050281 0
0.9047050251 0.6368824703 -2.784495242 0.3094429143 0.2169947152 -0.9258284811 1.836709923e-40
0.8891474921 0.844865027 -2.736546442 -0.3040283572 -0.2877902529 0.9081539122 9.183549616e-41
0.8681971253 1.047897874 -2.672047426 -0.2910522241 -0.3572198976 0.8875148154 1.836709923e-40
0.8424566628 1.244930843 -2.592676114 0.2660962729 0.4272102122 -0.8641089099 5.601965266e-39
0.8130012992 1.436537948 -2.502075756 -0.260543951 -0.4832256585 0.8358288177 1.19386145e-39
0.7785261892 1.61886077 -2.395766122 -0.2431482985 -0.5478978191 0.8004291878 9.183549616e-41
0.7408988551 1.794567369 -2.280043926 0.2329638654 0.6117074044 -0.7560038948 0
0.5259229663 2.026552602 -2.143654435 -0.1740489204 -0.6792749191 0.7129463918 0
0.6548336478 2.1189942 -2.015298331 0.210907388 0.7106152939 -0.6712257279 9.183549616e-41
0.6074074824 2.26853707 -1.86946571 0.1889317191 0.7649696257 -0.6157323098 1.836709923e-40
0.5557359746 2.40241215 -1.7103772 0.180525409 0.8132054544 -0.5532697947 3.765255342e-39
0.5006277812 2.520783917 -1.540814197 -0.1645000446 -0.853340886 0.4947212018 3.765255342e-39
0.2195411115 2.744261704 -1.191304508 -0.07196899242 -0.9246661645 0.3739156969 3.030571373e-39
0.3845909652 2.725011582 -1.183675218 -0.1231069766 -0.919732077 0.3727433149 3.030571373e-39
0.3237949935 2.809197776 -0.996555145 -0.1011071097 -0.9480482658 0.301631958 9.183549616e-41
0.2609218149 2.875228803 -0.8030385322 -0.07708164934 -0.9686635801 0.2361128711 0
0.1968229213 2.927548857 -0.6057142647 -0.05936628233 -0.9792268784 0.1938823486 0
0.1318212364 2.966345863 -0.4055980017 -0.03548411899 -0.9891088074 0.1428448264 0
0.06608924723 2.989718985 -0.203327095 0.01731027398 0.9965231489 -0.08149827097 0
1.55543171e-05 2.99841781 6.307692818e-06 0.009830322944 -0.9999437349 0.003986459645 0
-3.986652665e-05 -2.995295774 3.797104505e-05 -0.008474039371 0.9999315214 0.008071135304 1.836709923e-40
0.07988499087 -2.983422806 -0.1977261745 -0.03205339236 0.9963669462 0.07890176566 1.836709923e-40
0.1594730186 -2.961420626 -0.394802048 -0.05700592148 0.9899114295 0.1297138642 1.836709923e-40
0.2382960296 -2.924083807 -0.5899409999 -0.07856578954 0.9812319141 0.1761003904 1.836709923e-40
0.3159017255 -2.871434113 -0.7820491636 -0.0984636826 0.970293698 0.2209865217 1.836709923e-40
0.3920354974 -2.805691634 -0.9705378445 -0.1289985555 0.9514562535 0.2794465428 9.183549616e-41
0.4665299538 -2.727055804 -1.154795963 -0.1611707046 0.9220548211 0.3519075316 1.836709923e-40
0.5391646082 -2.635851083 -1.334367534 -0.1821347953 0.8912063227 0.4154253322 3.673419846e-40
0.608325269 -2.526863417 -1.505535058 0.2049751675 -0.8566540354 -0.473422691 2.755064885e-40
0.6469929239 -2.296221157 -1.829537905 -0.2223394168 0.7674655437 0.6013001106 0
0.7367651849 -2.269687376 -1.823463014 -0.2546828945 0.757659956 0.6009059946 9.183549616e-41
0.7066207787 -2.02166446 -2.107204138 0.2483682738 -0.6618752391 -0.7072724853 9.183549616e-41
0.8498554673 -1.965780022 -2.103447244 -0.2877744087 0.6514298974 0.7020149418 1.836709923e-40
