# .PCD v0.7 - Point Cloud Data file format
VERSION 0.7
FIELDS x y z normal_x normal_y normal_z rgb
SIZE 4 4 4 4 4 4 4
TYPE F F F F F F F
COUNT 1 1 1 1 1 1 1
WIDTH 526
HEIGHT 1
VIEWPOINT 0 0 0 1 0 0 0
POINTS 526
DATA ascii
-0.02224610281 -2.927407156 -0.6365498611 0.002232483779 0.9828136288 0.184587072 9.183549616e-41
-0.02949142902 -2.87708675 -0.844351284 0.003874129269 0.9727917459 0.2316488942 9.183549616e-41
-0.03660123529 -2.812536829 -1.048251188 0.007311013845 0.9591961349 0.282646995 9.183549616e-41
-0.04354886712 -2.733633846 -1.247218564 0.01100927432 0.9391081234 0.3434453792 9.183549616e-41
-0.05030351251 -2.640962282 -1.440483367 0.01456465163 0.9098444123 0.4146938828 9.183549616e-41
-0.05683896991 -2.534514186 -1.627058481 0.0189614579 0.868811668 0.494779495 4.959116793e-39
-0.06307206538 -2.413974107 -1.805171901 -0.0219665028 -0.8256115488 -0.5638111769 4.959116793e-39
-0.06898263847 -2.279813888 -1.973601431 -0.02590860753 -0.7756478806 -0.6306338948 1.19386145e-39
-0.07445143609 -2.132464532 -2.130715738 -0.0270886146 -0.7214710145 -0.6919145772 1.836709923e-40
-0.07947071862 -1.97354244 -2.275971801 -0.02552909794 -0.6632662554 -0.7479479524 0
-0.08402391472 -1.803959804 -2.408201045 -0.02061713985 -0.6059669972 -0.7952225675 0
-0.08820199351 -1.625385259 -2.527532952 0.01956026726 0.5461543958 0.8374561313 1.653038931e-39
-0.09195430517 -1.439149321 -2.633969654 0.02160624317 0.4837111317 0.8749609771 1.653038931e-39
-0.09521975965 -1.245945193 -2.726585101 0.02425786795 0.4195481622 0.907408891 1.653038931e-39
-0.09801919795 -1.047418139 -2.806567629 -0.02838327274 -0.354465569 -0.9346381922 1.653038931e-39
-0.0985431174 -0.9278440587 -2.84928499 -0.03009294682 -0.3177990065 -0.9476804346 1.836709923e-40
-0.1022563501 -0.637346097 -2.928120419 -0.0314064304 -0.2221390471 -0.9745090456 3.673419846e-40
-0.1036994596 -0.4272662848 -2.969723522 0.03182777667 0.1536586926 0.987611259 3.673419846e-40
-0.3005679593 -0.3497536552 -2.972601384 0.09928553104 0.12271081 0.9874636401 3.673419846e-40
-0.1049893832 -4.397084157e-05 -3.005873603 -0.03774529019 -0.005705504922 -0.9992711045 9.183549616e-41
-0.1047624938 0.2145948664 -2.998613226 -0.04079924972 0.07121130317 -0.9966264955 5.510129769e-40
-0.1039611493 0.4280811102 -2.975312629 -0.04237682995 0.1466938859 -0.9882738022 5.510129769e-40
-0.1026184231 0.6394241634 -2.937374618 0.0394871492 -0.2183004025 0.9750824064 5.510129769e-40
0.0874505504 0.7431619117 -2.915136796 -0.03010860204 -0.2584058847 0.9655671239 1.836709923e-40
-0.09833849634 1.05160417 -2.817459496 -0.02703646698 0.3598848661 -0.932604907 5.510129769e-40
-0.09542915494 1.249749498 -2.734573956 -0.02360525395 0.4307211438 -0.9021763067 2.755064885e-40
-0.09201404894 1.440414184 -2.636085897 -0.02281338626 0.4971929153 -0.8673400454 9.183549616e-41
-0.04187044047 1.890767406 -2.327320463 -0.01233341383 0.648123926 -0.7614350028 1.102025954e-39
-0.0838040538 1.797552131 -2.399802212 -0.0250354571 0.6165218525 -0.7869396618 1.102025954e-39
-0.07910052351 1.963867797 -2.265080794 -0.02381469032 0.6720437154 -0.7401284382 1.102025954e-39
-0.07401971585 2.120900806 -2.119631564 -0.0230270488 0.7265617163 -0.6867152448 9.183549616e-41
-0.06855156752 2.266827859 -1.96304374 0.02095540862 -0.7761785005 0.630164904 3.765255342e-39
-0.06271234733 2.400215098 -1.795764677 0.01817346067 -0.8226219243 0.5682982447 4.316268319e-39
-0.05655472769 2.521004713 -1.619331912 -0.01554096659 0.8643687006 -0.502618372 3.030571373e-39
-0.05011983259 2.629146111 -1.435059048 0.01323531952 -0.9064299963 0.4221486563 0
-0.04604881975 2.682911915 -1.331478464 0.01137295718 -0.9230622898 0.3844823339 0
-0.03655149856 2.807124011 -1.046618354 0.009467907924 -0.956503112 0.2915684405 0
-0.02946241096 2.875174513 -0.8438682955 0.01015498505 -0.9708890279 0.2393143787 0
-0.0222210989 2.928123004 -0.6366610147 0.0101078257 -0.9814931638 0.1912302312 0
-0.01486787101 2.966417205 -0.4262518563 -0.01048711588 0.9900187338 -0.1405451071 0
-0.007446369687 2.990068357 -0.2137051541 -0.009904935776 0.9968015063 -0.07930100438 0
-0.1612354321 2.984066478 -0.1950981751 -0.05968701498 0.9956687006 -0.07128323044 0
-5.724464913e-06 -2.996636343 2.121263027e-05 0.001701821065 -0.9999786671 -0.006306283922 9.183549616e-41
0.007445312345 -2.987478214 -0.2135123272 0.004862971112 -0.9970488204 -0.0766159334 9.183549616e-41
-0.01459392609 -2.941806774 -0.5617858703 0.0002574737475 0.9857291239 0.168339027 9.183549616e-41
0.02220115941 -2.926991605 -0.6364716729 -0.01195138228 0.9827402179 0.1846045194 9.183549616e-41
-0.111540368 -2.931995934 -0.6061162068 0.02940622526 0.983694088 0.177429465 9.183549616e-41
0.03660990949 -2.812442581 -1.048223202 -0.01296486665 0.9591761567 0.2825119689 9.183549616e-41
0.04356297882 -2.733758719 -1.247262991 -0.01345256709 0.939157319 0.3432237735 9.183549616e-41
0.05031388701 -2.641314829 -1.44064443 -0.01508427248 0.9098217431 0.414725042 9.183549616e-41
-0.02874323899 -2.463802984 -1.742248716 -0.01265024588 -0.8435678749 -0.5368735528 4.959116793e-39
0.03762903613 -2.367257507 -1.873200716 -0.01207319726 0.808468711 0.5884153135 8.265194654e-40
0.06897185426 -2.280343857 -1.974015143 -0.02423786867 0.7761784519 0.6300472494 8.265194654e-40
0.07444928462 -2.132636404 -2.130917621 -0.02649705384 0.7203032103 0.6931530793 2.3877229e-39
0.07950133481 -1.972696696 -2.275075272 -0.03058092445 0.6608567181 0.7498887953 0
0.08408049545 -1.80247945 -2.406286652 -0.03445028609 0.6039609079 0.7962690497 0
0.08818409615 -1.623431229 -2.524541576 -0.0383368011 0.545051842 0.8375253902 1.836709923e-40
0.0918606929 -1.437362053 -2.630738437 0.03897414418 -0.4843531259 -0.874004042 2.755064885e-40
0.09511726784 -1.244925903 -2.724398804 0.03829614973 -0.4215840081 -0.9059803138 1.836709923e-40
0.0979453261 -1.046845486 -2.805088318 -0.03502525108 0.3567318373 0.9335500137 9.183549616e-41
0.1003066216 -0.8439232004 -2.872525162 -0.03434552858 0.2901828472 0.9563546935 2.755064885e-40
0.1022102833 -0.6370768979 -2.926948817 0.03438925702 -0.2228471022 -0.9742466567 2.755064885e-40
0.1036566715 -0.4270508744 -2.9683406 0.03439154357 -0.153298298 -0.9875813149 2.755064885e-40
0.1046327894 -0.2144867332 -2.996277899 -0.03486338691 0.08135587008 0.9960751812 5.510129769e-40
0.1050268702 -7.985142338e-05 -3.007827124 -0.03399183907 0.008265717101 0.9993879291 5.510129769e-40
0.1320049069 0.2297896438 -3.001737621 -0.04390251634 -0.07339057186 0.9963364858 5.510129769e-40
0.1040145324 0.428665803 -2.979266734 -0.03250240785 -0.1465621939 0.9886673439 0
0.2047038567 0.4792154403 -2.967977498 0.07046899039 0.1653626741 -0.9837120043 9.183549616e-41
0.1007640055 0.8476736408 -2.884784773 -0.03633422616 -0.2934771565 0.9552753439 2.755064885e-40
0.09835421716 1.05082556 -2.815378451 -0.03833501144 -0.3629239305 0.9310298854 1.836709923e-40
0.09542036601 1.248235889 -2.731398325 -0.03967107782 -0.4309454693 0.901505523 2.755064885e-40
0.091985807 1.43899879 -2.633623496 -0.0372880115 -0.4958282613 0.8676196975 1.102025954e-39
0.08808794888 1.622090481 -2.522473641 -0.03305358917 -0.5568322567 0.8299670464 1.102025954e-39
0.08378005202 1.797101648 -2.399225254 -0.02980531082 -0.6156425742 0.7874616589 0
0.07908361653 1.963555572 -2.264737653 -0.0276463824 -0.6722104241 0.739843783 9.183549616e-41
0.07400059033 2.12041734 -2.119173969 -0.02607569564 -0.7262491573 0.6869368381 1.836709923e-40
0.06854697883 2.26672803 -1.962962772 -0.02377826512 -0.7761891641 0.6300515659 3.765255342e-39
0.06270897994 2.400321738 -1.795838272 0.02178738616 0.8225401582 -0.568289537 4.316268319e-39
0.0565481794 2.521156024 -1.61942035 0.01861739143 0.8643885057 -0.5024797548 3.030571373e-39
0.05011430802 2.629386971 -1.435171391 -0.01548043531 -0.9064168205 0.4221005847 0
0.04344092169 2.72501516 -1.244026762 -0.01263821964 -0.9359536623 0.3518963164 0
0.03655206137 2.807404343 -1.046702737 -0.01008117728 -0.956414545 0.2918382909 0
0.02947477251 2.875277559 -0.8438924619 -0.006732511977 -0.9708301089 0.2396738886 0
0.02224610955 2.928458191 -0.6367254695 -0.003012941607 -0.9814861909 0.1915092143 0
0.01490215342 2.966717532 -0.4262935826 0.0007225634031 -0.9900272921 0.1408738399 0
0.00747933974 2.990230796 -0.2137181683 0.00480001078 -0.9968423096 0.07926140101 0
7.336388851e-06 2.999171326 5.926395505e-06 -0.008852594284 0.9999352439 -0.007151198777 0
-5.724464913e-06 -2.996636343 2.121263027e-05 0.001701821065 -0.9999786671 -0.006306283922 9.183549616e-41
0.02232104366 -2.987461144 -0.2124709944 -0.01015980461 0.9970404304 0.07620471482 9.183549616e-41
0.0445250586 -2.963910066 -0.4238468787 -0.01833408687 0.9906303985 0.1353339385 9.183549616e-41
0.06653661176 -2.926677166 -0.6333115296 -0.02491103904 0.9826481324 0.1837990426 9.183549616e-41
0.08828098856 -2.876308079 -0.8400540481 -0.02967419992 0.9727125795 0.2301079736 9.183549616e-41
0.1096285102 -2.812042161 -1.042998797 -0.03348505586 0.959135099 0.2809601624 9.183549616e-41
0.1304629174 -2.733699234 -1.241159442 -0.03810718535 0.9394352509 0.3406013092 9.183549616e-41
0.1506940376 -2.641128609 -1.433541108 -0.04593359556 0.9097332022 0.4126446481 9.183549616e-41
0.1702513761 -2.534774106 -1.619276762 -0.05634185278 0.8686948943 0.4921328847 5.050952289e-39
0.1889054434 -2.413980503 -1.796385094 -0.06549433328 0.8252068801 0.5610205855 1.836709923e-40
0.2065447985 -2.279717463 -1.963884779 -0.07406208449 0.775991462 0.626380123 4.959116793e-39
0.2228949752 -2.131855966 -2.119785749 -0.07905215322 0.7200843122 0.6893687985 8.265194654e-40
0.2379025779 -1.971682961 -2.262866087 -0.0845964383 0.6597077854 0.7467456599 9.183549616e-41
0.2515160588 -1.801054953 -2.392708966 -0.08938412586 0.602465104 0.7931243764 9.183549616e-41
0.2637964647 -1.621874407 -2.509861534 -0.09456607216 0.5439649275 0.8337622057 2.755064885e-40
0.2748778817 -1.436032331 -2.615538152 0.09876861827 -0.4846556883 -0.8691108237 2.755064885e-40
0.2847786995 -1.244250404 -2.709717476 0.09971340511 -0.4244345761 -0.8999514028 2.755064885e-40
0.2933313243 -1.046645314 -2.790938465 0.09920186735 -0.3592882907 -0.9279390679 0
0.3004878251 -0.8440209266 -2.858879157 0.09812016073 -0.2921964688 -0.9513115461 1.836709923e-40
0.306239848 -0.6372876012 -2.913604638 0.09776444629 -0.2228181409 -0.9699454568 1.836709923e-40
0.3105106529 -0.4271241987 -2.954359664 -0.09907821965 0.1520172268 0.9833993437 7.346839693e-40
0.3133421801 -0.2144657985 -2.98145226 -0.1004172329 0.08099019711 0.9916435687 2.755064885e-40
0.31459446 -7.147415786e-05 -2.993257715 -0.1035508945 0.007334685993 0.9945971117 1.836709923e-40
0.3140598939 0.2148541578 -2.987817436 -0.1065581861 -0.07000282388 0.9918391793 0
0.3116854684 0.4287155455 -2.964990548 0.1077028971 0.147644043 -0.9831588491 0
0.3075137123 0.6399799594 -2.925331986 0.1066215499 0.2224593979 -0.9690942479 9.183549616e-41
0.3016485761 0.8473368961 -2.869587685 -0.1057021508 -0.2953518136 0.9495232285 2.755064885e-40
0.2942885044 1.050059705 -2.799695532 -0.1035506063 -0.3636282066 0.9257709216 2.755064885e-40
0.285492728 1.247308063 -2.716166492 -0.09922915338 -0.4297984429 0.8974557781 1.102025954e-39
0.275290237 1.438078982 -2.619193844 -0.09363475655 -0.4940302906 0.8643879941 9.183549616e-41
0.2637334425 1.621473632 -2.509267838 -0.08840209637 -0.5558929676 0.8265398224 0
0.2508860843 1.79670314 -2.387031598 -0.08288304928 -0.6162851494 0.7831494205 0
0.23685118 1.96337245 -2.253503427 -0.0782574319 -0.6721730481 0.7362466759 9.183549616e-41
0.1735780867 2.17677481 -2.055652019 -0.05681591885 -0.7455609696 0.6640111384 3.765255342e-39
0.2052943827 2.26655926 -1.953263383 -0.06797783854 -0.7762748583 0.6267187231 3.765255342e-39
0.1878297915 2.400348713 -1.787106513 0.06121098532 0.8221354252 -0.5659916589 4.316268319e-39
0.1694065046 2.521641457 -1.611810468 -0.05324134876 -0.8641895697 0.5003416297 3.030571373e-39
0.15012572 2.629746678 -1.428342373 -0.04399303066 -0.9060441613 0.4208902364 0
0.1301279997 2.72529317 -1.238069027 -0.03638777635 -0.9358887766 0.3504113689 0
0.1094852882 2.807604042 -1.041663143 -0.02993426535 -0.956364669 0.2906381937 0
0.08827610311 2.875534878 -0.8398444259 -0.02345030594 -0.9708643807 0.2384794278 0
0.06660992471 2.92863153 -0.633655592 -0.01657618453 -0.9814343842 0.191080558 0
0.04460579062 2.967026407 -0.4242600911 -0.008960163508 -0.9900625214 0.1403421506 0
0.02237018376 2.990399814 -0.212690022 -0.000377961467 -0.996871871 0.07903372711 0
-0.1734839924 2.988520482 0.1402867038 0.06653872907 -0.9969088802 -0.04177657372 0
-5.724464913e-06 -2.996636343 2.121263027e-05 0.001701821065 -0.9999786671 -0.006306283922 9.183549616e-41
0.03708821108 -2.987436831 -0.2103931324 -0.01531073377 0.9970209299 0.07559660534 9.183549616e-41
0.07397197094 -2.963629334 -0.4196680221 -0.02820864687 0.9905589703 0.1341536383 9.183549616e-41
0.1105337842 -2.92627235 -0.6270501166 -0.03820122537 0.9825426216 0.1820732354 9.183549616e-41
0.1466377977 -2.875772954 -0.8317246515 -0.04645617316 0.9726962366 0.2273848176 9.183549616e-41
0.1820935274 -2.81159644 -1.032681425 -0.05400389854 0.9591586734 0.277665659 9.183549616e-41
0.2167004704 -2.733236625 -1.228868344 -0.06325881639 0.9394204374 0.3368791534 9.183549616e-41
0.2502818009 -2.640402104 -1.419211455 -0.07652699954 0.9095801627 0.4084207951 9.183549616e-41
0.2826941419 -2.533571891 -1.602798155 -0.09290563099 0.8679005347 0.487972546 1.836709923e-40
0.3136198063 -2.412481149 -1.777853435 -0.1084522573 0.8237910603 0.556422858 1.836709923e-40
0.3428556383 -2.27814751 -1.943445035 -0.1216263484 0.7754108679 0.6196329698 4.959116793e-39
0.3700640744 -2.1307271 -2.097992901 -0.130208147 0.7202112445 0.6814261528 1.928545419e-39
0.3949921353 -1.970766557 -2.239714046 -0.1376284906 0.6605557399 0.7380545461 1.928545419e-39
0.5639249685 -1.815633639 -2.322586874 -0.1900407374 0.6123112264 0.7674369552 1.928545419e-39
0.437935592 -1.62079666 -2.483706426 -0.1499519991 0.5430975234 0.8261715791 2.755064885e-40
0.4564891016 -1.435476052 -2.589014159 0.1567577586 -0.4856713866 -0.8599711096 3.673419846e-40
0.4730500381 -1.244068775 -2.682895187 0.160251901 -0.4264615015 -0.8901965603 2.755064885e-40
0.4874346115 -1.046912448 -2.764393505 0.1624730381 -0.362038 -0.9178948733 9.183549616e-41
0.4996425914 -0.8448390579 -2.833600965 0.1641377533 -0.2942686719 -0.9415225683 9.183549616e-41
0.5093783189 -0.6381599518 -2.888890585 -0.1640321935 0.2245555316 0.9605562205 1.836709923e-40
0.5164000602 -0.4276528499 -2.928841701 -0.164476755 0.1537018303 0.974332153 1.836709923e-40
0.5207691891 -0.2145579084 -2.953652448 -0.1675464696 0.0785921134 0.982726544 1.836709923e-40
0.5224423923 -2.907864446e-05 -2.962961499 -0.1727898251 0.003354449765 0.984953006 1.836709923e-40
0.5213560777 0.2147358042 -2.956525976 0.1772114552 0.07319942271 -0.9814468629 0
0.5172837044 0.4283225524 -2.933304157 0.1783289207 0.1496945784 -0.9725175213 9.183549616e-41
0.5103481423 0.6393474994 -2.894026965 0.1762302009 0.2223882618 -0.9588985229 1.836709923e-40
0.5006981051 0.8466637607 -2.839444817 -0.1713097472 -0.2935822994 0.9404586137 2.755064885e-40
0.4885400031 1.049360045 -2.770594938 -0.1652446731 -0.3623921588 0.9172601165 2.755064885e-40
0.4740320978 1.246689452 -2.688360835 -0.1583559156 -0.428379969 0.8896145267 2.755064885e-40
0.4572352699 1.437790159 -2.593110333 -0.1505871587 -0.4928683007 0.856973947 9.183549616e-41
0.4380917574 1.621322294 -2.484534098 -0.1431669505 -0.5555181319 0.8190865823 0
0.4167865154 1.796695215 -2.363704426 -0.1359257131 -0.6159868581 0.7759409715 9.183549616e-41
0.3934415528 1.963212637 -2.23131773 -0.1285805208 -0.6719904803 0.7293118976 2.020380915e-39
0.3682239524 2.120480874 -2.088310356 -0.1206434113 -0.7262075451 0.6768070395 3.765255342e-39
0.3410726346 2.266734779 -1.934324527 -0.1109499659 -0.7759727971 0.6209318185 3.765255342e-39
0.3120847007 2.400751447 -1.769924479 -0.09960882946 -0.8218268187 0.5609623527 9.183549616e-41
0.2814731273 2.522074888 -1.596314705 -0.08752361538 -0.8640625565 0.4957171725 4.591774808e-39
0.249440921 2.630308339 -1.414648401 -0.07344727126 -0.9059380975 0.4169912012 0
0.2162049074 2.725781528 -1.226157505 -0.06108520128 -0.93592223 0.3468691073 0
0.1818912777 2.80780989 -1.031551716 -0.05040780355 -0.9564700182 0.2874441817 0
0.1426802963 2.912983092 -0.6976672575 -0.03823831235 -0.9780447029 0.2048570002 0
0.1106608619 2.929031369 -0.6275428422 -0.03008942666 -0.9814346608 0.1894218387 0
0.07409611572 2.967262594 -0.4201487485 -0.01889631728 -0.9900858949 0.1391863852 0
0.03715350105 2.990542758 -0.2106235072 -0.005637833153 -0.9969056778 0.0784046192 0
-0.05870752139 2.994390365 -0.1227505701 -0.02870312494 0.9983690771 -0.04934892596 0
0.09382479371 -2.994574072 -0.04133836104 -0.03637667198 0.9991026566 0.02169376374 9.183549616e-41
0.05167631581 -2.987419534 -0.2072902881 -0.02003684458 0.9970026552 0.07472770875 9.183549616e-41
0.1030596552 -2.963478423 -0.4134624457 -0.03765607457 0.9904842537 0.1323743296 9.183549616e-41
0.1539819368 -2.92589854 -0.6177418794 -0.05152448927 0.9824364711 0.179342709 9.183549616e-41
0.2042572799 -2.875186755 -0.8193349847 -0.06338384843 0.972627519 0.2235580396 9.183549616e-41
0.2536350236 -2.810925484 -1.017272506 -0.07432827749 0.9591839501 0.2728396178 9.183549616e-41
0.4737679749 -2.729016671 -1.161829327 -0.13831301 0.9389200433 0.3151169045 9.183549616e-41
0.3485758467 -2.639455781 -1.3978774 -0.1067346851 0.9093855119 0.4020269863 9.183549616e-41
0.3936246479 -2.532134374 -1.578395566 -0.1290018497 0.8668951492 0.4815094216 1.836709923e-40
0.4365664496 -2.410630091 -1.750427502 -0.1490705962 0.8230240795 0.5480960882 1.836709923e-40
0.4772333163 -2.27643236 -1.913455464 -0.165209456 0.7749374285 0.6100637815 0
0.5152137641 -2.129502363 -2.065888543 -0.1781976641 0.7218170554 0.6687493783 4.959116793e-39
0.5500581695 -1.970115062 -2.205956193 -0.1869757925 0.6626974135 0.7251704567 1.928545419e-39
0.581716319 -1.800014335 -2.33308314 -0.1964898226 0.6028649032 0.7732694602 1.928545419e-39
0.5625766322 -1.603529479 -2.468791686 0.1922709011 -0.5372609807 -0.8212079756 1.928545419e-39
0.6358819377 -1.435234416 -2.550433881 0.2138376202 -0.48518801 -0.8478596978 3.673419846e-40
0.6590127394 -1.244009687 -2.643242376 0.2226866911 -0.4265675236 -0.8766132473 2.755064885e-40
0.6793676051 -1.047377411 -2.724830196 0.2283875986 -0.3631873677 -0.9032906735 9.183549616e-41
0.6967893116 -0.845744336 -2.794672327 -0.2305075454 0.2984372408 0.9261757311 9.183549616e-41
0.710822927 -0.6393074898 -2.851081966 -0.2314109969 0.2269553763 0.9460127947 1.836709923e-40
0.7206161157 -0.4284248345 -2.890535552 -0.2317108789 0.1532867197 0.9606316933 1.836709923e-40
0.7261997076 -0.2147476223 -2.912861353 -0.23557724 0.07532821297 0.9689318987 1.836709923e-40
0.7277363355 1.39864154e-05 -2.918830574 -0.2407868824 -0.001708952676 0.9705765074 1.836709923e-40
0.7255326749 0.214528461 -2.909853608 -0.244714474 -0.07736098646 0.9665040631 9.183549616e-41
0.7196544189 0.4277306929 -2.886244512 0.2450815995 0.1510037326 -0.95767055 9.183549616e-41
0.7099786965 0.6384225939 -2.847471636 0.2428874974 0.2209083774 -0.9445661186 1.836709923e-40
0.6968223008 0.8457612888 -2.794761831 0.2361870066 0.2924261035 -0.9266621131 2.755064885e-40
0.6802977769 1.048854649 -2.728516027 0.2273978895 0.3600993804 -0.9047754617 1.836709923e-40
0.6603128093 1.246504482 -2.648370104 -0.2187947081 -0.4264191622 0.8776648414 1.836709923e-40
0.6370171315 1.437812512 -2.554936976 -0.2091231464 -0.4924546933 0.8448407452 0
0.6104464563 1.621625925 -2.448362902 -0.1994003153 -0.5552318761 0.8074385909 2.020380915e-39
0.5807633753 1.797039189 -2.32930083 -0.1879470266 -0.616535536 0.7645651366 9.183549616e-41
0.5482391032 1.963604587 -2.198858302 -0.1775732288 -0.6728468973 0.7181537449 3.765255342e-39
0.5493200377 2.069105071 -2.097646555 -0.1781154845 -0.7096836053 0.6816333726 3.765255342e-39
0.4752059155 2.266893985 -1.905946042 -0.1521398263 -0.7761552173 0.6119122094 1.836709923e-40
0.4348975815 2.401398582 -1.744278102 -0.137174418 -0.8216843037 0.553189013 9.183549616e-41
0.3922418308 2.522785783 -1.57319299 -0.1211775953 -0.8639758437 0.4887348278 4.591774808e-39
0.3475688117 2.630774244 -1.394014578 -0.1015836467 -0.9061631437 0.4105473417 0
0.3012338382 2.726031861 -1.208180433 -0.0850033997 -0.9359396623 0.3417475247 0
0.2534240603 2.808060787 -1.016424815 -0.07033403743 -0.9564426832 0.28332052 0
0.2043323155 2.876082486 -0.8195161393 -0.05651434016 -0.9707960797 0.2331546717 0
0.1541779415 2.929293154 -0.618344526 -0.04325752316 -0.9814179614 0.1869426962 0
0.1032320404 2.967543468 -0.4139958177 -0.02844549136 -0.990103081 0.1374290474 0
0.05175798607 2.990727039 -0.207533947 -0.01073566569 -0.9969483728 0.07732197218 0
7.336388851e-06 2.999171326 5.926395505e-06 -0.008852594284 0.9999352439 -0.007151198777 0
-5.724464913e-06 -2.996636343 2.121263027e-05 0.001701821065 -0.9999786671 -0.006306283922 9.183549616e-41
0.06601087735 -2.987409646 -0.203178331 -0.02502843091 0.9969844923 0.07345406544 9.183549616e-41
0.1316446199 -2.963375236 -0.4052472309 -0.04692175467 0.9903636237 0.1303005824 9.183549616e-41
0.1966651817 -2.925438528 -0.6054104682 -0.06443024128 0.9823099826 0.1758290138 9.183549616e-41
0.2267951918 -2.90797697 -0.6809105073 -0.07213780169 0.9789107454 0.1911279416 9.183549616e-41
0.3238885016 -2.810012764 -0.9968481119 -0.09473248921 0.9591529982 0.2665544626 9.183549616e-41
0.3854269524 -2.731532574 -1.186160281 -0.1125826938 0.9391815521 0.3244428288 9.183549616e-41
0.4450783152 -2.638321079 -1.369670721 -0.1358967813 0.9088975179 0.3942554588 9.183549616e-41
0.5024854489 -2.530583442 -1.546265503 -0.1629444358 0.8659473635 0.4728469884 1.836709923e-40
0.5571896358 -2.408801466 -1.714540894 -0.1864999331 0.8219194186 0.5382065071 1.836709923e-40
0.6090796319 -2.274714838 -1.874189144 -0.2065146336 0.7746708209 0.597692919 9.183549616e-41
0.8647454797 -1.963974811 -2.108962376 -0.2925753 0.6628662497 0.6892082623 1.836709923e-40
0.5809368086 -2.012196725 -2.165180536 -0.1983606548 0.6769764137 0.708770757 1.928545419e-39
0.7430739047 -1.800079197 -2.286895541 -0.2503447131 0.6037658941 0.7568317314 2.755064885e-40
0.779347285 -1.620808046 -2.398603319 -0.2621406712 0.5433684347 0.7975167789 1.928545419e-39
0.8121533107 -1.435089787 -2.499610123 0.273494075 -0.4845261491 -0.830924426 1.928545419e-39
0.8416489216 -1.243812988 -2.590419692 0.2843430474 -0.4252172226 -0.8592667485 3.673419846e-40
0.8679540163 -1.047586854 -2.671320633 -0.2921456338 0.3642780586 0.8842807386 9.183549616e-41
0.8906753097 -0.8463841878 -2.741171362 -0.2980964992 0.3006588502 0.9059485267 1.102025954e-39
0.9599487275 -0.4682372068 -2.82138563 -0.3166609946 0.168137228 0.9335179093 1.102025954e-39
0.9217235861 -0.4290610729 -2.836954748 -0.3013608977 0.1552452959 0.9407871743 1.102025954e-39
0.9285047267 -0.2149336506 -2.857778359 -0.3050223019 0.07323076083 0.9495254873 1.010190458e-39
0.929757003 5.407399058e-05 -2.861522099 -0.3081984054 -0.006158682687 0.9513021673 1.010190458e-39
0.9261297788 0.2143906845 -2.85028882 -0.3109011578 -0.08051558761 0.9470257178 9.183549616e-41
0.9182339488 0.4272470682 -2.826003646 -0.3098423509 -0.1514420715 0.9386495707 9.183549616e-41
0.9058599025 0.6376922303 -2.787950379 0.306229717 0.2201837057 -0.9261438852 1.836709923e-40
0.8894892495 0.845188249 -2.737566582 0.2972024393 0.290013489 -0.9097048347 1.836709923e-40
0.8686981148 1.048514076 -2.673578311 -0.2882138449 -0.3576150547 0.8882816289 9.183549616e-41
0.843544788 1.246658155 -2.596169173 -0.2779749057 -0.4260240795 0.860949148 2.020380915e-39
0.8140210094 1.43842573 -2.505312382 -0.2662979811 -0.4913972026 0.8292250446 2.020380915e-39
0.7800506276 1.622285707 -2.400757903 -0.2530884215 -0.5547893149 0.7925623426 9.183549616e-41
0.7420944395 1.797709123 -2.283929085 -0.2393245748 -0.6162975454 0.7502673413 0
0.5269477163 2.026884454 -2.147739472 -0.1704721649 -0.6943190132 0.6991854896 3.765255342e-39
0.6554595613 2.121096972 -2.017294572 -0.2098062748 -0.7268653704 0.6539480563 1.836709923e-40
0.6071364134 2.267437999 -1.868575199 -0.193187862 -0.7759106103 0.6005340747 1.836709923e-40
0.5556141611 2.40187539 -1.710006936 -0.1737660981 -0.8218422593 0.5425685615 9.183549616e-41
0.5011263243 2.523339149 -1.542306379 -0.1543592514 -0.8642021113 0.4788819608 4.591774808e-39
0.2178828572 2.743257623 -1.184803165 -0.06153284898 -0.9401117965 0.3352663397 0
0.384800993 2.726225311 -1.184293775 -0.1086084159 -0.9359625851 0.3349302184 0
0.3237122812 2.808107681 -0.9962838508 -0.09029097717 -0.9563500588 0.277924638 0
0.2610134846 2.876263613 -0.8033086203 -0.07315957926 -0.9707223373 0.2287920888 0
0.1969542348 2.929619043 -0.6061439796 -0.05636812952 -0.9813786841 0.1836260122 0
0.1318650687 2.967695412 -0.4058071514 -0.03808505658 -0.9901116296 0.1350129229 0
0.06611238427 2.990903714 -0.2034318796 -0.01556288133 -0.99697741 0.076117283 0
7.336388852e-06 2.999171326 5.926395505e-06 -0.008852594284 0.9999352439 -0.007151198777 0
-5.724464913e-06 -2.996636343 2.121263027e-05 0.001701821065 -0.9999786671 -0.006306283922 9.183549616e-41
0.08002397191 -2.987408062 -0.1980769788 -0.02990191403 0.9969668078 0.0718544345 9.183549616e-41
0.1595855483 -2.963230557 -0.3950545813 -0.05570929533 0.9902955852 0.1273229291 9.183549616e-41
0.2383803525 -2.924986141 -0.5901333328 -0.07680284686 0.982160984 0.1716424313 9.183549616e-41
0.3161345774 -2.873581224 -0.7825808696 -0.09570177681 0.9723583158 0.2129799888 9.183549616e-41
0.3925141841 -2.80899785 -0.9715528291 -0.1142719366 0.9591117822 0.2589334158 9.183549616e-41
0.4670634418 -2.730355851 -1.155989569 -0.1362434834 0.9389325317 0.315980085 9.183549616e-41
0.5393104569 -2.637038368 -1.3347484 -0.1637038082 0.9085647797 0.3843320234 9.183549616e-41
0.6088308279 -2.529293493 -1.50676954 -0.195215928 0.8654837397 0.4613335428 9.183549616e-41
0.6468567679 -2.299278322 -1.828747143 -0.2166358937 0.7841599955 0.5815169739 9.183549616e-41
0.7379311548 -2.273521835 -1.826253274 -0.2451404581 0.7744305584 0.5832353436 9.183549616e-41
0.7084961452 -2.023854799 -2.112143318 -0.2390560385 0.6855260817 0.6876817591 9.183549616e-41
0.8515346747 -1.969703686 -2.107459468 -0.2869472427 0.6654710447 0.6890642703 1.836709923e-40
0.900799253 -1.800100473 -2.22950144 -0.3031879761 0.6056094324 0.7357406245 1.836709923e-40
0.9448597486 -1.620971075 -2.338629226 0.3183509264 -0.5431590344 -0.7769369028 3.948926335e-39
0.9843910326 -1.43490118 -2.436528038 0.3325435968 -0.482343161 -0.8104072009 3.948926335e-39
1.020002335 -1.243470499 -2.524713677 0.3455559491 -0.4242118726 -0.8370396485 3.948926335e-39
1.051812285 -1.047215425 -2.603396637 -0.3563229763 0.3646134598 0.8602853954 3.948926335e-39
0.8726092413 -1.072582051 -2.658905571 -0.2937010492 0.3735024983 0.8799065731 9.183549616e-41
1.102285069 -0.6403234605 -2.728129532 -0.3680333742 0.2331291608 0.9001123429 9.183549616e-41
1.117889854 -0.4292640366 -2.766802109 -0.3716861625 0.1564973251 0.9150726659 9.183549616e-41
1.126258729 -0.2150579772 -2.787619319 -0.3728419783 0.07315959715 0.9250062338 9.183549616e-41
1.127621272 8.330470128e-05 -2.7909425 -0.3752138644 -0.008222319495 0.9269018014 0
1.122717394 0.2144038921 -2.778806909 -0.3745328211 -0.08216907134 0.9235655958 0
1.112328997 0.4269231351 -2.753111858 -0.3726101993 -0.153441249 0.9152144134 9.183549616e-41
1.097437066 0.6372789591 -2.716265677 -0.3679830175 -0.2191933028 0.9036275753 1.836709923e-40
1.077777826 0.8447821265 -2.667597702 -0.3597119122 -0.2878100428 0.8875656142 9.183549616e-41
1.05314778 1.0485819 -2.606633984 0.348807112 0.3567482834 -0.8666396373 2.020380915e-39
1.02310225 1.247310097 -2.532296624 0.3350001939 0.4248462236 -0.8409997363 9.183549616e-41
0.7938889859 1.454350048 -2.50231863 -0.2589320401 -0.4982799215 0.8274486802 2.020380915e-39
0.9463797304 1.623666701 -2.342422063 -0.3061225822 -0.5548324448 0.7735954517 0
0.9001704242 1.798912589 -2.228028254 -0.2892596685 -0.6167396853 0.7320935765 0
0.8495688837 1.965182416 -2.102768432 -0.2722741016 -0.6737329334 0.6869867161 9.183549616e-41
0.7948369867 2.12182729 -1.967298252 -0.2531656488 -0.7275610818 0.6376221659 1.836709923e-40
0.7361787888 2.268024761 -1.822114827 -0.2333432445 -0.7760395272 0.5859296737 9.183549616e-41
0.6736892389 2.402438781 -1.66744543 -0.2110168673 -0.8223593329 0.5283909625 4.591774808e-39
0.6415138738 2.62116197 -1.307391661 -0.1940670059 -0.898715817 0.3932529435 9.183549616e-41
0.5382653107 2.631176893 -1.332252585 -0.1579943272 -0.9065371754 0.3914436641 0
0.466451751 2.726071858 -1.154514848 -0.1325316871 -0.9360493182 0.3259555581 0
0.3924055506 2.807979041 -0.9712390228 -0.1096868188 -0.9562858141 0.2710834622 0
0.316416728 2.876301701 -0.7831528574 -0.08911846877 -0.9706758956 0.2232626351 0
0.2387747047 2.929875969 -0.5909758256 -0.06922993426 -0.9813976612 0.1790693909 0
0.01081081749 2.935533498 -0.6053569221 0.00163363984 -0.9829945264 0.1836275913 0
0.08014600427 2.99107546 -0.1983380172 -0.02053441799 -0.9970160827 0.07441282509 0
7.336388852e-06 2.999171326 5.926395505e-06 -0.008852594284 0.9999352439 -0.007151198777 0
-5.724464913e-06 -2.996636343 2.121263027e-05 0.001701821065 -0.9999786671 -0.006306283922 9.183549616e-41
0.09364472213 -2.987377157 -0.1920076396 -0.03491755354 0.9969294529 0.07008873296 9.183549616e-41
0.186748086 -2.963150949 -0.3829468597 -0.0646310727 0.9902195288 0.123645094 9.183549616e-41
0.2759295132 -2.869293412 -0.8128680936 -0.08411910526 0.9710393601 0.2236214151 9.183549616e-41
0.1355602448 -2.927255149 -0.6138240232 -0.04652034542 0.982578951 0.1799290487 9.183549616e-41
0.459157513 -2.807788455 -0.9414908834 -0.1339443128 0.9589254822 0.2500416779 0
0.5463485872 -2.729076313 -1.120176257 -0.1599240122 0.9387489145 0.3052454519 0
0.6308527237 -2.635824697 -1.293378488 -0.1909649811 0.9085544451 0.3715658708 9.183549616e-41
0.7121822257 -2.528296315 -1.460118128 -0.224862979 0.8656401974 0.4473295086 9.183549616e-41
0.7897132736 -2.406785992 -1.61908161 -0.254021666 0.8220669275 0.5095870484 2.846900381e-39
0.8632700153 -2.272882128 -1.769880411 -0.2821878881 0.7739947513 0.5668351795 9.183549616e-41
0.9325089859 -2.127370032 -1.911801087 -0.3087442951 0.723016099 0.6180005508 9.183549616e-41
0.9963066167 -1.969398213 -2.042622704 -0.3330784239 0.6655519414 0.6679067127 9.183549616e-41
1.05407094 -1.800004903 -2.161118494 -0.3538945496 0.6059822725 0.7124213172 9.183549616e-41
1.10568936 -1.62096807 -2.267021951 -0.3729746154 0.5438923882 0.7517120502 3.673419846e-40
1.151792591 -1.4347113 -2.361606354 -0.3893157073 0.4814275999 0.7852774963 2.755064885e-40
1.28043311 -1.477369 -2.267259605 -0.4321301752 0.4958899779 0.7532308023 2.755064885e-40
1.229749818 -1.046247985 -2.521464652 -0.41521045 0.3641353163 0.8336700508 0
1.262026271 -0.8453295908 -2.587530184 -0.4241066605 0.3037946913 0.8531367569 0
1.288802554 -0.6397477704 -2.642298981 -0.4321545208 0.2368693078 0.8701352775 0
1.307675243 -0.4291051455 -2.681005903 -0.4364559905 0.1585504613 0.8856454819 0
1.31819134 -0.2151108381 -2.702632019 -0.4387819073 0.07462135798 0.8954898608 0
1.319939439 0.0001007468029 -2.706247539 0.4394057997 0.009172967078 -0.8982418382 0
1.314121459 0.2144749547 -2.694348061 0.4368113327 0.08470478772 -0.8955562286 0
1.301783847 0.4269644488 -2.669052123 -0.4340805288 -0.153517443 0.8876972959 9.183549616e-41
1.284270589 0.6372938921 -2.633144555 -0.4277406717 -0.218092671 0.8771963889 9.183549616e-41
1.261416385 0.8449064553 -2.586282557 -0.4183693033 -0.2861863646 0.8620118855 9.183549616e-41
1.232843558 1.048956626 -2.527717665 0.4066169125 0.353753542 -0.8423307652 0
1.198247881 1.248383559 -2.456852488 0.3910346568 0.4226360847 -0.8176005364 9.183549616e-41
1.156849648 1.441157551 -2.372023973 0.3745022061 0.4908416079 -0.786652791 0
1.108587148 1.625413157 -2.273066859 -0.3567066455 -0.555051237 0.7514509254 0
1.054264394 1.800498882 -2.161625984 -0.338840226 -0.6179220205 0.7094784548 0
0.9947360396 1.966363091 -2.039545002 -0.3183069235 -0.6751524602 0.6654696521 9.183549616e-41
0.9304616876 2.122636855 -1.907747301 -0.2964982466 -0.7281763218 0.6179385359 9.183549616e-41
0.8616438374 2.268463846 -1.766643274 -0.273301835 -0.7764961676 0.5677673896 9.183549616e-41
0.7883952857 2.402545562 -1.616454874 -0.2473902096 -0.822789016 0.5116798993 4.591774808e-39
0.7108925309 2.523320935 -1.457544431 -0.2192342114 -0.8646741339 0.4519679223 1.102025954e-39
0.6298162672 2.630839131 -1.291319566 -0.1858257812 -0.9065483141 0.3789972735 0
0.5457891922 2.725714294 -1.119044964 -0.1555379467 -0.9360649151 0.3155795016 0
0.4591806707 2.807856575 -0.9414672121 -0.1292073823 -0.9562214156 0.2625758112 0
0.3702759667 2.876306842 -0.759173227 -0.1046961509 -0.9705638384 0.2168975599 0
0.2951093422 2.894163313 -0.7219709797 -0.08438974889 -0.9740655831 0.209939539 0
0.1870906881 2.968235662 -0.3835756948 -0.05598153013 -0.9901245 0.1285283733 0
0.09379130868 2.991260668 -0.1922780512 -0.02530666935 -0.9970488493 0.07247871806 0
7.336388852e-06 2.999171326 5.926395505e-06 -0.008852594284 0.9999352439 -0.007151198777 0
-5.724464913e-06 -2.996636343 2.121263027e-05 0.001701821065 -0.9999786671 -0.006306283922 9.183549616e-41
0.1068123697 -2.987395012 -0.1850069362 -0.0394650056 0.9969142724 0.06785607445 9.183549616e-41
0.2130005813 -2.963061754 -0.368970841 -0.07294253274 0.990128294 0.119688547 0
0.3180998208 -2.924133096 -0.5510640294 -0.1005184256 0.9818544128 0.1608040988 0
0.421748135 -2.87191483 -0.7306185454 -0.1259535237 0.9718703504 0.1990068638 0
0.5234942406 -2.806422686 -0.9068237989 -0.1520395731 0.9586521378 0.2405619398 0
0.6228614715 -2.727548615 -1.07886037 -0.1819016167 0.938865133 0.2923081661 0
0.7191944228 -2.634384464 -1.245654637 -0.2164361879 0.9087191767 0.3569101211 0
0.8120214237 -2.527336532 -1.406402557 0.256628122 -0.8655794419 -0.4300165541 9.183549616e-41
0.900592206 -2.406408805 -1.559824781 -0.2879738796 0.8223270777 0.4907639168 9.183549616e-41
0.984618593 -2.272858615 -1.705347076 -0.3207941894 0.7732016729 0.5470377146 9.183549616e-41
1.063462188 -2.127098878 -1.841889359 -0.3502103513 0.7222308334 0.596435523 9.183549616e-41
1.136102551 -1.968924943 -1.967692512 -0.3796012389 0.6652076712 0.6429631821 9.183549616e-41
1.202096314 -1.799758798 -2.082044483 -0.4041783845 0.6059901211 0.6851392608 9.183549616e-41
1.260982301 -1.620773951 -2.184113839 -0.4253557292 0.5440119051 0.7232728053 2.755064885e-40
1.313350521 -1.434306845 -2.27487265 -0.4432718659 0.4813522874 0.756181214 1.836709923e-40
1.282309429 -1.293802057 -2.372498668 -0.4326376993 0.4385968992 0.7876911712 9.183549616e-41
1.401063079 -1.045040287 -2.42685859 -0.4726778038 0.363299903 0.8028629237 0
1.437305181 -0.8439762137 -2.489552837 -0.4833930301 0.3052526431 0.8204584099 0
1.467602743 -0.638604545 -2.541907189 -0.4919450903 0.2374672732 0.8376152591 0
1.489905184 -0.428615092 -2.580465821 0.4987090583 -0.1610532945 -0.8516754731 0
1.502830756 -0.2150346778 -2.602902965 -0.5010157331 0.07660139289 0.8620414501 0
1.540858394 -0.1660662154 -2.585933029 -0.514684985 0.05511020202 0.8556063533 0
1.499482038 0.2145767407 -2.59718905 0.4975731062 0.08421602427 -0.8633241948 0
1.485577774 0.4272062628 -2.573099404 -0.4933224149 -0.1527015818 0.8563382637 9.183549616e-41
1.226734391 0.6484036323 -2.657576393 -0.409951394 -0.2227549576 0.8844886 9.183549616e-41
1.439353553 0.8452654318 -2.493034811 -0.4771025059 -0.2833575902 0.8319144637 9.183549616e-41
1.407141282 1.049692592 -2.43727521 0.464009625 0.3513944321 -0.8131525201 0
1.367973787 1.249569606 -2.36952417 -0.4466669151 -0.4211744415 0.7893673142 9.183549616e-41
1.320969443 1.442845101 -2.288156131 0.428523299 0.4908318095 -0.7585854711 0
1.265796444 1.627251911 -2.192571016 -0.4088036052 -0.556338449 0.7234411811 0
1.203483095 1.8020969 -2.084563613 -0.3881023381 -0.6194999218 0.6823462626 2.755064885e-40
1.135161909 1.967428878 -1.966190399 -0.3651229229 -0.6760034548 0.6400816981 2.755064885e-40
1.061548472 2.123221667 -1.838667425 -0.3404731564 -0.7287505398 0.5941386037 2.755064885e-40
0.875721067 2.43593647 -1.517276119 -0.2750130946 -0.8351013082 0.476417467 4.591774808e-39
0.8991186534 2.402209921 -1.557319543 -0.2838127371 -0.8229899888 0.4920750031 4.591774808e-39
0.8106046191 2.522536971 -1.404011873 0.2520558464 0.8648800212 -0.4341087412 9.183549616e-41
0.7181688804 2.630032983 -1.243919554 -0.2126920499 -0.9067900566 0.3639970951 0
0.6224247743 2.725232371 -1.078090417 -0.1782440168 -0.9358967518 0.3038524979 0
0.5236776585 2.80749419 -0.9070466066 -0.1477927787 -0.9560976166 0.253050671 0
0.4223196204 2.876223871 -0.7314773062 -0.1201686447 -0.9705291898 0.208884151 0
0.3187349978 2.930254523 -0.5520576903 -0.0934416245 -0.9813368271 0.1680675298 0
0.1156421313 2.994793116 -0.1536789926 -0.03154539679 -0.9976141735 0.06140723717 0
0.1069814891 2.991442058 -0.1852801506 -0.02975657226 -0.9970802978 0.07032372411 0
7.336388852e-06 2.999171326 5.926395505e-06 -0.008852594284 0.9999352439 -0.007151198777 0
-5.724464913e-06 -2.996636343 2.121263027e-05 0.001701821065 -0.9999786671 -0.006306283922 9.183549616e-41
0.1194602221 -2.987423199 -0.17710534 -0.04382617656 0.9969012809 0.0653230615 9.183549616e-41
0.2382148757 -2.962993711 -0.3532011177 -0.08101229928 0.9900507389 0.1150501705 0
0.5627354121 -2.895652848 -0.4808645757 -0.1699085222 0.975437928 0.140185387 0
0.4715584902 -2.871031018 -0.6992368719 -0.1395941294 0.9716221628 0.1909551044 0
0.5852461054 -2.805148869 -0.867788341 -0.1693887686 0.9583207198 0.2300626939 0
0.6962523199 -2.725943156 -1.032307245 -0.2031458094 0.9386493079 0.2786920466 0
0.8039690387 -2.633003703 -1.191933802 -0.2419907813 0.9087367394 0.3400558782 0
0.9078373963 -2.526400915 -1.345886533 0.2853163119 -0.8660198063 -0.4106145362 0
1.129931935 -2.357731877 -1.484427477 -0.3632110008 0.8048075792 0.4694278745 0
1.101137443 -2.272790373 -1.632469965 -0.3567723154 0.7732086854 0.5242726807 9.183549616e-41
1.189160981 -2.126731553 -1.762950365 -0.3908326953 0.7208910261 0.57233376 0
1.27008016 -1.968108443 -1.882907068 -0.4237621711 0.663902337 0.6161650017 9.183549616e-41
1.343746209 -1.798874819 -1.992160824 -0.4513024271 0.606470233 0.6546143718 9.183549616e-41
1.409691872 -1.620116639 -2.090000562 -0.4755123326 0.544456098 0.6909816053 1.836709923e-40
1.468303668 -1.43378817 -2.17694158 0.4952678776 -0.4815079363 -0.7230904762 9.183549616e-41
1.519898982 -1.241229053 -2.253439554 -0.5108650577 0.4214425674 0.7492683466 1.836709923e-40
1.565514772 -1.044051643 -2.321094038 -0.5258509811 0.3627803109 0.7693316526 0
1.605448637 -0.8428282378 -2.380264044 -0.5378020255 0.3051196336 0.7859204734 9.183549616e-41
1.63879146 -0.6375022368 -2.429618606 0.5491592024 -0.2366574503 -0.8015094644 0
1.664268485 -0.4280400608 -2.46728859 -0.558002673 0.1623639367 0.813800325 0
1.689371609 -0.1382962167 -2.489309456 -0.563523973 0.04830839769 0.8246860194 9.183549616e-41
1.683901049 5.003859695e-05 -2.496471335 0.5597880134 0.00443048168 -0.8286240106 9.183549616e-41
1.677427891 0.2146320635 -2.486901547 0.5564887586 0.08293282977 -0.8267057562 0
1.662246782 0.4274272483 -2.464395057 -0.5507674239 -0.152502729 0.8206084099 9.183549616e-41
1.639726533 0.6378894794 -2.430999027 -0.5435892026 -0.2166625138 0.8109057491 1.836709923e-40
1.610646812 0.8457377134 -2.387891827 -0.5340932097 -0.2822719998 0.7969108868 9.183549616e-41
1.574788139 1.050405155 -2.33476445 -0.5199633049 -0.3510253403 0.7787293317 0
1.531216331 1.250620313 -2.270212493 0.5032987719 0.4204782053 -0.7549095476 0
1.478619055 1.444090808 -2.192252883 0.483202056 0.4909708479 -0.7248885428 0
1.416729273 1.62853735 -2.100464307 -0.4608968238 -0.5583594368 0.6897889946 2.755064885e-40
1.346531962 1.802881781 -1.996333904 -0.4375507094 -0.6203555141 0.6509288846 2.755064885e-40
1.269791142 1.967807292 -1.882543287 -0.411643021 -0.6767369108 0.6103910032 2.755064885e-40
1.187263404 2.123290429 -1.760187261 -0.3833584632 -0.7289191541 0.5671976335 9.183549616e-41
1.099095955 2.268385485 -1.629474062 -0.3525703944 -0.7774313732 0.5208594599 4.591774808e-39
1.005234856 2.401363995 -1.49032296 -0.3188779595 -0.823285544 0.4695931857 4.591774808e-39
0.9062047805 2.521425012 -1.343515865 0.2825284723 0.8651251057 -0.4144106824 9.183549616e-41
0.8029246784 2.629027916 -1.190408621 -0.2382257647 -0.9068010109 0.3477936337 0
0.6959254308 2.724369206 -1.031779064 -0.1996920544 -0.9358258552 0.290435969 0
0.5855999174 2.807079252 -0.8682016476 -0.1657747053 -0.9559581158 0.2422041038 0
0.4723030629 2.876131594 -0.7002161375 -0.1345609794 -0.9704499116 0.2003005541 0
0.3564867751 2.930428277 -0.5285073492 -0.104912652 -0.9812994171 0.1613839811 0
0.2386976769 2.968830546 -0.3538765024 -0.0729054713 -0.9901441351 0.1195800314 0
0.1196516103 2.991612675 -0.1773781362 -0.03417035882 -0.997123863 0.06764900835 0
7.336388852e-06 2.999171326 5.926395505e-06 -0.008852594284 0.9999352439 -0.007151198777 0
-0.02282453612 -2.995984669 -0.02050153685 -0.006095481798 -0.9999006602 -0.01270884679 9.183549616e-41
0.1315268074 -2.987462196 -0.1683412869 -0.04797986499 0.9968909397 0.0625010947 9.183549616e-41
0.2622712726 -2.962978063 -0.3357166931 -0.08883016628 0.98996341 0.1099165524 0
0.3916183991 -2.92351197 -0.5013203574 -0.1221068817 0.9815079239 0.1474181291 0
0.5190585017 -2.870226797 -0.6644793603 -0.1526910275 0.9713849375 0.1819251312 0
0.644089306 -2.803794555 -0.8245347617 -0.185449087 0.9580266466 0.2186174296 0
0.766180918 -2.724318181 -0.9807640697 -0.222242005 0.9384206056 0.2645283694 0
0.8847400905 -2.63158118 -1.132444465 -0.2655130929 0.9087920032 0.3218693717 0
0.9991790271 -2.525486928 -1.278865109 0.3132392828 -0.8667921569 -0.3880109643 0
1.108703248 -2.405911264 -1.419033455 -0.3542000169 0.8223433809 0.4453018211 0
1.212190849 -2.272509078 -1.551488232 -0.3932246725 0.773771332 0.4966409999 0
1.308776892 -2.125921034 -1.675100359 -0.43191574 0.7195295207 0.5438070083 0
1.397731973 -1.967236549 -1.788959687 -0.4678452913 0.6625608231 0.584922165 0
1.478499012 -1.797725512 -1.892395083 -0.4970351403 0.6057800301 0.6212782182 0
1.551106062 -1.619132949 -1.985396428 -0.522895101 0.5450510603 0.6553625371 9.183549616e-41
1.615686318 -1.43298233 -2.068080867 0.5440211311 -0.4824134997 -0.6865262007 9.183549616e-41
1.672655605 -1.240654606 -2.140984455 -0.5610062231 0.4226477843 0.7117870946 9.183549616e-41
1.799338927 -0.975339868 -2.174225502 -0.6010064279 0.3417665445 0.7224866107 0
1.766103265 -0.8420930313 -2.260581102 -0.5902803033 0.3021455167 0.7485167001 9.183549616e-41
1.802680571 -0.6368784235 -2.307361804 0.6033517013 -0.2354802913 -0.7619158463 9.183549616e-41
1.830514652 -0.4275643185 -2.342906184 -0.6132356809 0.1631364428 0.7728703 9.183549616e-41
1.847822415 -0.2147575969 -2.365010388 -0.618658924 0.0825839813 0.7813072519 0
1.852949028 1.332582767e-05 -2.371601851 -0.6189153598 -0.001382750964 0.7854564695 4.591774808e-40
1.846634537 0.2145877703 -2.363565446 -0.6149623813 -0.08050114758 0.7844366353 4.591774808e-40
1.830438285 0.4275055319 -2.342857929 -0.6080733589 -0.1513823258 0.7793139173 4.591774808e-40
1.805932981 0.6381145824 -2.311492302 -0.60011205 -0.2170022015 0.7699191984 4.591774808e-40
1.77385915 0.8460077373 -2.270442893 -0.589456379 -0.2824484169 0.7568117791 4.591774808e-40
1.734315091 1.05069544 -2.219836208 -0.5755984725 -0.3503454165 0.7388805638 0
1.686364873 1.25098934 -2.158463688 -0.5578387861 -0.4208399926 0.7153387934 0
1.579868176 1.49829024 -2.089834828 -0.5187908441 -0.510445132 0.6857855548 2.755064885e-40
1.559662474 1.62834862 -1.996235642 -0.5120064516 -0.5595358612 0.6517430579 2.755064885e-40
1.224639174 2.009788 -1.867073249 -0.3950282472 -0.6920846146 0.6041287694 2.755064885e-40
1.397637826 1.967214676 -1.788867018 -0.4571331189 -0.6760122627 0.5779591095 0
1.306825311 2.122713758 -1.672649582 -0.423953627 -0.729222889 0.537119447 5.510129769e-40
1.209693257 2.26759907 -1.548334108 -0.3899351849 -0.7776239609 0.4932053599 4.591774808e-39
1.106269693 2.400252299 -1.415971517 -0.3523914398 -0.8235494171 0.4445071773 0
0.9972418231 2.520117092 -1.27643908 0.3118782179 0.8652172051 -0.3925954217 9.183549616e-41
0.883677721 2.627905857 -1.131094162 -0.2628945203 -0.9067332485 0.329729112 0
0.9173722433 2.682389388 -0.9545615811 -0.2664763803 -0.9237203973 0.2751925988 0
0.644656977 2.806660695 -0.8251328217 -0.182081871 -0.9557926745 0.230882125 0
0.5199807878 2.876027638 -0.6655428996 -0.1483888463 -0.9703516765 0.1907835798 0
0.3925044401 2.930590717 -0.5023778406 -0.1158501492 -0.981259301 0.1539770342 0
0.262822358 2.969084579 -0.3363929631 -0.0806512036 -0.9901463891 0.1144793065 0
0.2170573894 2.982112901 -0.2723222356 -0.06446906665 -0.9931648762 0.09729988709 0
7.336388852e-06 2.999171326 5.926395505e-06 -0.008852594284 0.9999352439 -0.007151198777 0
-5.724464913e-06 -2.996636343 2.121263027e-05 0.001701821065 -0.9999786671 -0.006306283922 9.183549616e-41
0.1429534741 -2.98751235 -0.1587573881 -0.05190605495 0.9968836777 0.05940281626 9.183549616e-41
0.2850523313 -2.962979118 -0.3165985752 -0.09605785553 0.9899005994 0.1042578137 0
0.4255940875 -2.923204675 -0.4727280586 -0.1319932112 0.9813585574 0.1396895629 0
0.5924618442 -2.840726444 -0.7264204842 -0.1720317579 0.9655333019 0.1953215741 0
0.6997771436 -2.802570324 -0.7773202502 -0.2006160296 0.9576096994 0.2067289829 0
0.8323543328 -2.722863871 -0.9245400541 -0.2405087903 0.9381846036 0.2489280444 0
0.961088445 -2.63003357 -1.067455991 -0.2880605754 0.9087345048 0.3020309666 0
1.08555648 -2.524470745 -1.205621005 0.3401399692 -0.8672416029 -0.3635887837 0
1.204636324 -2.405138601 -1.337830645 0.3865192322 -0.8227567792 -0.416742325 6.428484731e-40
1.317153983 -2.271918579 -1.462784306 -0.4293036639 0.7734803851 0.4662901007 6.428484731e-40
1.368493295 -2.255630263 -1.440681341 -0.4477299099 0.7667423682 0.4600478982 6.428484731e-40
1.518008444 -1.965783798 -1.685895285 -0.5082192325 0.6616679779 0.5512791478 0
1.605466842 -1.796114143 -1.783094369 -0.5400090276 0.6054404186 0.5846641341 0
1.684302879 -1.617667376 -1.870713515 -0.5673537252 0.5458653047 0.6165556096 0
1.754968668 -1.43209919 -1.949195499 0.5898559485 -0.484425197 -0.646066706 0
1.817355709 -1.240230204 -2.018440894 -0.6082592523 0.423833325 0.671108035 0
1.871993594 -1.043259777 -2.079099306 -0.6248483645 0.3631494608 0.6911490363 9.183549616e-41
1.919411458 -0.8420793749 -2.131758402 -0.640150348 0.2994167362 0.7075006361 9.183549616e-41
1.958640508 -0.6366655242 -2.175324924 0.6543530978 -0.2344164709 -0.7189373697 9.183549616e-41
1.988502495 -0.4273191555 -2.208427797 -0.6662981882 0.1617741628 0.7279257137 4.591774808e-40
2.006834605 -0.2145828978 -2.228723296 0.6735484074 -0.08355425678 -0.7344053574 4.591774808e-40
2.012714246 -1.332818403e-05 -2.235245499 -0.675424047 0.001691366701 0.7374276209 4.591774808e-40
2.006226526 0.2144785657 -2.22809381 0.6709921256 0.07832711468 -0.7373156925 0
1.989360113 0.4274854303 -2.209393746 -0.6635981211 -0.1495223067 0.7329942793 9.183549616e-41
1.962985904 0.6381823427 -2.18011565 0.6535137679 0.2163764635 -0.7253281886 9.183549616e-41
1.928321991 0.8461856744 -2.141618186 -0.6418928707 -0.2826618046 0.7127943931 0
1.885023943 1.050740933 -2.09351485 -0.6277445329 -0.3511041702 0.6947392771 9.183549616e-41
1.832248288 1.250586138 -2.034863718 -0.6091287101 -0.422379082 0.6712362666 2.755064885e-40
1.768299199 1.44317811 -1.963820356 -0.5855998255 -0.4928245285 0.6435812524 0
1.693691954 1.626899158 -1.880954639 -0.5588697603 -0.560018935 0.6115908629 9.183549616e-41
1.609726533 1.80103031 -1.787727123 -0.5297092828 -0.6211573986 0.5775565443 9.183549616e-41
1.51814394 1.966017041 -1.686048339 -0.4983295554 -0.6755519446 0.5434125729 5.510129769e-40
1.419713469 2.121750976 -1.576746596 -0.462255354 -0.7288942318 0.5050081053 4.591774808e-39
