# .PCD v0.7 - Point Cloud Data file format
VERSION 0.7
FIELDS x y z normal_x normal_y normal_z rgb
SIZE 4 4 4 4 4 4 4
TYPE F F F F F F F
COUNT 1 1 1 1 1 1 1
WIDTH 527
HEIGHT 1
VIEWPOINT 0 0 0 1 0 0 0
POINTS 527
DATA ascii
-0.1023214136 0.6417727924 2.947814437 -0.0008388343133 0.219052612 0.975712688 0
-0.08923862955 0.8075585351 2.907215869 -0.014678431 0.2887461911 0.957293153 0
-0.09832495991 1.051258726 2.816199089 -0.02986706546 0.3758900519 0.9261828261 9.183549616e-41
-0.09524340794 1.246328174 2.727400391 -0.03384992408 0.4458736259 0.8944556403 0
-0.09157723841 1.433796715 2.624787584 -0.04063812201 0.5105501066 0.8588871472 0
-0.08713085562 1.610598074 2.505624987 -0.04708371432 0.5629638312 0.8251392904 9.183549616e-41
-0.1069305729 1.856401813 2.317861887 -0.05166048545 0.6160152229 0.7860384465 3.673419846e-40
-0.07832373143 1.9516788 2.250347168 -0.0397090798 0.6387946062 0.7683518986 3.673419846e-40
-0.07379014916 2.116739924 2.115206375 -0.03649368131 0.6882738725 0.7245324614 3.673419846e-40
-0.06869373097 2.269901812 1.965727143 -0.03693761633 0.749220913 0.6612893739 1.836709923e-40
0.1590858311 2.315563211 1.919109569 0.03645714575 0.7678892585 0.6395443403 9.183549616e-41
-0.05688296615 2.533416051 1.627058805 -0.02436650926 0.8442019231 0.5354711816 0
0.02337336019 2.666404101 1.423062954 0.01324378472 0.8830475452 0.4690966158 0
-0.04377994762 2.746719072 1.25306056 -0.01479876782 0.9202322084 0.3910929289 0
-0.03690490531 2.827329013 1.053057184 -0.01828084492 0.9517649834 0.3062829199 3.122406869e-39
-0.005664831164 2.863977687 0.9993151253 -0.02402921534 0.9611762335 0.2748869678 3.122406869e-39
0.08133716112 2.886515037 0.8512469565 0.01247909165 0.9745546041 0.2238025824 0
0.1974082591 2.993767551 0.226643034 -0.03886875341 -0.9973974987 -0.06072437417 0
0.1663016015 2.985686946 0.2430949332 -0.03865746041 -0.996738446 -0.07083834414 0
3.69992987e-05 2.998056847 1.403890663e-05 0.01903690675 -0.9997926885 0.007223308706 0
2.345034485e-05 -2.9962766 4.168750418e-05 0.006297580799 0.999917501 0.01119516269 9.183549616e-41
-0.02235440059 -2.990814385 0.2127531829 0.01069725482 0.99816939 -0.05952677988 9.183549616e-41
-0.04464408302 -2.970954369 0.424777574 -0.01081922509 -0.9933524752 0.1146028116 9.183549616e-41
0.1644930972 -2.959706666 0.4704507896 0.04813184379 -0.9908823763 0.1258389523 9.183549616e-41
-0.08844056147 -2.883067731 0.8416827547 -0.01976329514 -0.9715279623 0.2360991965 0
-0.1096156426 -2.811658273 1.042931283 -0.03357233659 -0.943775162 0.3288789165 1.653038931e-39
0.05358242165 -2.639379949 1.411825092 0.01228616481 -0.8895025283 0.4567650406 1.836709923e-39
-0.1499768371 -2.627780148 1.427145997 -0.05205570969 -0.8866146061 0.4595701724 1.469367939e-39
-0.1692657616 -2.519727723 1.610582623 -0.05736924634 -0.8527941041 0.519086684 9.183549616e-41
-0.1878449611 -2.400621167 1.787273684 -0.06476970739 -0.8141369893 0.5770492594 3.673419846e-40
-0.2055644699 -2.269380298 1.955574584 -0.07574164763 -0.7698627124 0.6336991453 3.673419846e-40
-0.2222280398 -2.125406796 2.113573309 -0.08663917324 -0.7230105016 0.6853827166 1.836709923e-40
-0.2379845403 -1.971269457 2.262175292 -0.09941079721 -0.6697984706 0.7358583438 0
-0.252357873 -1.805261525 2.39810821 -0.1078106556 -0.6067983198 0.78751042 0
-0.2646959779 -1.626398465 2.516923319 -0.1067713942 -0.5362782196 0.8372607363 2.204051908e-39
-0.2753943011 -1.438540779 2.620085154 -0.09934573133 -0.4722506609 0.8758480113 0
-0.2851829469 -1.245951973 2.713308678 -0.09126664268 -0.4156070002 0.9049537122 0
-0.2938267423 -1.048447644 2.795592974 -0.08506215378 -0.3606294922 0.9288222647 0
-0.301310944 -0.8468433801 2.867847012 -0.07909415604 -0.3041503944 0.9493348472 9.183549616e-41
-0.3074824278 -0.6412821945 2.930096505 -0.07004347752 -0.2362118224 0.9691738163 2.479558396e-39
-0.3121298274 -0.4307654868 2.977532981 -0.07030931114 -0.1547268774 0.985452279 1.836709923e-40
-0.3149208343 -0.2160488788 3.003664607 -0.07662081588 -0.07291994926 0.994390231 9.183549616e-41
-0.5288260571 0.1403622793 2.977529578 -0.1858299414 0.02006103078 0.9823771108 0
-0.3146635718 0.2154909802 3.00480672 -0.06486084475 0.05091088235 0.9965947787 0
-0.3126370199 0.432123016 2.988378911 -0.06296348883 0.1453353345 0.9873769491 0
-0.4523765699 0.4618520948 2.985536988 -0.146957452 0.1671456645 0.9749183731 0
-0.3024587318 0.8505699131 2.878818125 -0.09240318387 0.3150316587 0.9445722342 9.183549616e-41
-0.294349343 1.050461124 2.800481358 -0.09799911442 0.3784917146 0.9204021923 2.755064885e-40
-0.2850792627 1.245476955 2.712423983 -0.0980504953 0.4481701476 0.8885547924 2.755064885e-40
-0.2742334175 1.432357587 2.609645844 -0.09457412341 0.5128283218 0.8532659887 2.755064885e-40
-0.2616332024 1.608286128 2.490077735 -0.08978650898 0.5638007338 0.8210159045 2.755064885e-40
-0.4495229401 1.692391967 2.39257687 -0.1298988017 0.5799649887 0.8042182 2.755064885e-40
-0.2353835147 1.951547891 2.239171122 -0.07870927379 0.6378083089 0.7661627838 2.112216412e-39
-0.2211893456 2.116339358 2.104505205 -0.0760662629 0.6901240686 0.719682356 2.112216412e-39
-0.2053852299 2.267555765 1.954089758 -0.07435038424 0.7491848487 0.6581748118 9.183549616e-41
-0.1882562986 2.405564825 1.790904573 -0.0674441475 0.8016344624 0.5939978751 0
-0.1700711858 2.531171148 1.617738202 -0.06075121024 0.8428747302 0.5346695051 0
-0.1510883771 2.645951043 1.436734527 -0.05481728269 0.8817003614 0.4686144879 0
-0.1311397893 2.745055505 1.246212416 -0.04966593572 0.9206928687 0.3871148878 0
-0.1102851884 2.825657725 1.047361908 -0.04489119309 0.9519509622 0.3029424802 3.122406869e-39
-0.08866615856 2.886388852 0.8423238009 -0.03933306822 0.9754721279 0.2165803255 0
-0.06669511663 2.932467094 0.6343698609 -0.03627002409 0.9863192905 0.1608065374 0
-0.1807040665 2.923380329 0.6449894922 -0.0629640484 0.9848360264 0.161658683 0
-0.02233057951 2.990878134 0.2127468081 0.0272235713 -0.9974250276 -0.06634901243 0
3.69992987e-05 2.998056847 1.403890663e-05 0.01903690675 -0.9997926885 0.007223308706 0
2.345034485e-05 -2.9962766 4.168750418e-05 0.006297580799 0.999917501 0.01119516269 9.183549616e-41
-0.03713681474 -2.990618621 0.2106642654 0.01547619285 0.9981663224 -0.05851905927 9.183549616e-41
-0.07416682949 -2.970951087 0.4206272594 -0.01917168541 -0.9934195691 0.1129159255 9.183549616e-41
-0.1108650832 -2.936706854 0.6288929188 -0.02440375159 -0.98587539 0.1656930063 9.183549616e-41
-0.1469567778 -2.883575638 0.833587196 -0.03616579783 -0.9714577864 0.2344393403 0
-0.1821013246 -2.811670382 1.032749079 -0.05729955058 -0.9435345131 0.3262811428 1.653038931e-39
-0.2160912921 -2.724831695 1.22554776 -0.07134029722 -0.9149855834 0.3971296314 7.346839693e-40
-0.2492251369 -2.628328418 1.413481681 -0.08224751554 -0.8861882496 0.4559668107 1.469367939e-39
-0.2813332737 -2.520871911 1.595538182 -0.09166720547 -0.8525240132 0.5145871455 1.469367939e-39
-0.312110498 -2.401005197 1.770082931 -0.1049585867 -0.8122457207 0.5737948974 5.510129769e-40
-0.3412310596 -2.267785163 1.935176544 -0.1214361178 -0.7669284153 0.6301381397 5.510129769e-40
-0.3684709288 -2.121880128 2.089623267 -0.1380695986 -0.7188560186 0.6813096289 1.836709923e-40
-0.3941161961 -1.966394377 2.234789255 -0.1517215963 -0.6663953554 0.7299984846 0
-0.4177002854 -1.800332612 2.368340067 -0.1610008465 -0.6072704117 0.778011166 0
-0.4385961355 -1.623088435 2.487190471 -0.1626999079 -0.5424698978 0.8241693697 0
-0.4571736085 -1.437600913 2.592773227 -0.1595006011 -0.4806688865 0.8622743066 9.183549616e-41
-0.4736991844 -1.245794394 2.686483813 -0.1578093574 -0.421726844 0.8928844695 9.183549616e-41
-0.4883747496 -1.049024124 2.769740554 -0.1588372531 -0.3635907653 0.9179174704 9.183549616e-41
-0.5012993046 -0.8479604327 2.843166625 -0.1622329105 -0.3076923354 0.9375531502 1.836709923e-40
-0.5127067768 -0.6428303784 2.907535259 -0.1700006218 -0.2380039825 0.9562708261 2.755064885e-40
-0.4613317874 -0.5517928768 2.940895403 -0.1450059161 -0.2067667472 0.9675850332 2.755064885e-40
-0.2722312248 -0.2192991278 3.011438981 -0.0497985368 -0.07601639802 0.995862246 1.836709923e-40
-0.5253440986 -0.0004129686996 2.977839083 -0.184629708 -0.01733041335 0.9826553453 0
-0.3520335202 0.2824471501 3.006081447 -0.07884799842 0.06893049763 0.9945006685 0
-0.5224956865 0.4325055582 2.961125888 -0.1812230135 0.1470448299 0.9723867736 9.183549616e-41
-0.514476154 0.6454507326 2.916614559 -0.1743570483 0.2486952183 0.9527593128 2.755064885e-40
-0.502229762 0.8497249886 2.847882913 -0.1693428318 0.3211658825 0.9317593473 1.836709923e-40
-0.4884751328 1.049248727 2.770191509 -0.1673084545 0.3806777481 0.9094461684 5.510129769e-40
-0.4733359382 1.244735689 2.684461457 -0.1573876402 0.4466315873 0.8807663458 5.510129769e-40
-0.4555426449 1.431755164 2.583055856 -0.1428020559 0.5094839899 0.8485479579 4.591774808e-40
-0.4352214593 1.608745835 2.466156512 -0.1285398388 0.5599131428 0.8185198729 3.673419846e-40
-0.4138741747 1.782052091 2.344260768 -0.1200045004 0.5986518232 0.791969011 2.112216412e-39
-0.3916666386 1.953468469 2.219588095 -0.1171509553 0.6391768617 0.760084596 2.112216412e-39
-0.3676491632 2.117011501 2.084661367 -0.1147942351 0.6925182626 0.712208354 2.755064885e-40
-0.34114292 2.267226586 1.93471656 -0.1084716715 0.7505939865 0.6517994814 9.183549616e-41
-0.3125554324 2.404563905 1.77268115 -0.09953083874 0.8017319249 0.589338216 0
-0.2823032867 2.529685053 1.600995883 -0.0938871702 0.8435291437 0.5288135617 0
-0.250738486 2.643442352 1.421334546 -0.09132161464 0.8828350623 0.4607196713 0
-0.2176224655 2.742255581 1.232841883 -0.08368706465 0.9207268185 0.3811280636 0
-0.1829399914 2.822895061 1.036250847 -0.07019578133 0.9516427699 0.2990795727 3.122406869e-39
-0.1471121218 2.884593618 0.8336970617 -0.05504410186 0.9753438793 0.2137158487 0
-0.1107279132 2.931295899 0.6279844877 -0.04642797643 0.9861665498 0.1591225281 0
-0.07403831427 2.967000066 0.4201695436 -0.04020044312 0.9924031943 0.1162747796 0
-0.03710351337 2.990470019 0.2106418682 0.03185202599 -0.9973305492 -0.06570558617 0
3.69992987e-05 2.998056847 1.403890663e-05 0.01903690675 -0.9997926885 0.007223308706 0
2.345034485e-05 -2.9962766 4.168750418e-05 0.006297580799 0.999917501 0.01119516269 9.183549616e-41
-0.05173682429 -2.990418136 0.207548908 0.01993364379 0.9981538123 -0.05737261364 9.183549616e-41
-0.103328232 -2.970911205 0.4144237928 -0.0281550268 -0.9934451497 0.1107882171 9.183549616e-41
-0.1544861129 -2.937274938 0.6197181774 -0.03608335892 -0.9859641766 0.1630111455 9.183549616e-41
-0.2047709562 -2.883895328 0.8213804473 -0.05365001315 -0.9714399657 0.2311407995 0
-0.2536665151 -2.811287716 1.017400762 -0.08044401865 -0.9431405583 0.3225130187 1.653038931e-39
-0.3010038643 -2.724367423 1.207289518 -0.09901684454 -0.9149274865 0.3912842432 7.346839693e-40
-0.3472311861 -2.628391232 1.392684167 -0.1127920191 -0.8862107249 0.4493423099 7.346839693e-40
-0.3920840243 -2.521792816 1.572574217 -0.1275954367 -0.8524770509 0.5069539252 1.469367939e-39
-0.4348647311 -2.401235906 1.744158641 -0.1472465002 -0.8107317157 0.5665973467 3.673419846e-39
-0.4750423162 -2.266169902 1.905345811 -0.1651633411 -0.7642886765 0.6233649732 3.673419846e-39
-0.5125430246 -2.118762507 2.055896213 -0.1820282341 -0.7154093612 0.6745777701 2.755064885e-40
-0.5478171891 -1.962298826 2.197420278 -0.1976496164 -0.6637669524 0.7213515523 0
-0.5807952337 -1.797212636 2.329504709 -0.2062252716 -0.608836443 0.766021751 0
-0.6105075743 -1.621805681 2.448621183 -0.2124755962 -0.5468166415 0.8098429981 0
-0.6368710663 -1.437481183 2.554360749 -0.2159636818 -0.4854852506 0.847150376 9.183549616e-41
-0.65992915 -1.245762877 2.646836657 -0.2202330342 -0.4238369144 0.8785554511 2.755064885e-40
-0.6802605488 -1.048792807 2.728353103 -0.2303654042 -0.3621842273 0.9031912123 2.755064885e-40
-0.6981113132 -0.8473760343 2.79962473 -0.2418914181 -0.302096425 0.9220771615 1.836709923e-40
-0.6999710959 -0.4846658548 2.900579984 -0.2615224583 -0.1672386668 0.9505983548 0
-0.7234548342 -0.4296682798 2.899223232 -0.2690791691 -0.1443757504 0.9522352879 0
-0.7272632833 -0.2148728982 2.915288725 -0.2718152452 -0.06946912568 0.9598387954 0
-0.7280014972 -0.0001118573104 2.918745648 -0.2736241196 -0.01368938008 0.9617392797 0
-0.7280599262 0.2147656272 2.917618461 -0.2806976352 0.05067896822 0.9584573438 0
-0.7250275924 0.4303210179 2.903612328 -0.2821636849 0.143285384 0.9486057946 1.836709923e-40
-0.7146853593 0.6425760857 2.863415595 -0.2695885568 0.2389618646 0.9328554214 3.673419846e-40
-0.6982292629 0.8475663096 2.799895074 -0.2467508112 0.3138589 0.916846022 9.183549616e-41
-0.6799619102 1.048319963 2.727180748 -0.2273205302 0.3745233163 0.8989202757 4.591774808e-40
-0.659445544 1.244706739 2.644781883 -0.2098959717 0.4398078025 0.8732197764 5.510129769e-40
-0.6350376553 1.432619255 2.546220537 -0.1912537983 0.502497092 0.8431599239 3.673419846e-40
-0.6074058518 1.611831961 2.434004228 -0.1731204808 0.5550738111 0.8135861131 2.755064885e-40
-0.577907365 1.786415032 2.315345389 -0.1625654612 0.5991504448 0.7839586822 0
-0.5466759118 1.957183457 2.191295487 -0.1584393328 0.6436712463 0.7487217805 1.836709923e-40
-0.5128051622 2.119557596 2.056532346 -0.1534997711 0.6961609338 0.701282949 1.836709923e-40
-0.4755328678 2.268592466 1.907373167 -0.1441587425 0.7525219621 0.642595482 0
-0.4355470617 2.405299274 1.747083752 -0.1337551259 0.8034454942 0.5801593782 0
-0.3931756224 2.52903049 1.576954708 -0.1281052922 0.8469802796 0.5159587581 0
-0.3488995134 2.64070302 1.398940889 -0.1242442393 0.8843307896 0.4500249144 0
-0.3027001003 2.738708869 1.213210349 -0.1131536338 0.9205938419 0.3737689572 0
-0.2545141061 2.819895051 1.020052162 -0.09304991386 0.9510983024 0.294539866 3.122406869e-39
-0.2047737606 2.882694285 0.8210034278 -0.06983820587 0.9750128233 0.2108853227 0
-0.1541993047 2.930163732 0.6185510046 -0.05659755849 0.986065049 0.1564366819 0
-0.103136519 2.966299829 0.4138964452 -0.0472561828 0.9922684097 0.1147617373 0
-0.05169307409 2.990082984 0.2075125715 0.03617103074 -0.9972419076 -0.06480921365 0
3.69992987e-05 2.998056847 1.403890663e-05 0.01903690675 -0.9997926885 0.007223308706 0
2.345034485e-05 -2.9962766 4.168750418e-05 0.006297580799 0.999917501 0.01119516269 9.183549616e-41
-0.06608198189 -2.990200406 0.2034225349 0.02457383222 0.9981466108 -0.05567288493 9.183549616e-41
-0.1319851362 -2.970896107 0.4062038503 -0.03610028479 -0.9935069493 0.1078921273 9.183549616e-41
-0.4360039104 -2.916294371 0.5993555718 -0.1164284922 -0.9804984572 0.1583261873 0
-0.2615982041 -2.884248408 0.805177526 -0.07033829668 -0.9714083138 0.2267562832 0
-0.3239831878 -2.810960305 0.9971178793 -0.1024731364 -0.9429730372 0.3167035008 1.653038931e-39
-0.3844047242 -2.723735398 1.183081568 -0.1251674326 -0.9147028249 0.3842549362 7.346839693e-40
-0.4435888363 -2.628683036 1.365216658 -0.1424105989 -0.8865299461 0.4402089005 7.346839693e-40
-0.5010038346 -2.522723138 1.541932745 -0.162338822 -0.8516102717 0.4984035032 0
-0.5555637519 -2.401635935 1.709849207 -0.1856385906 -0.8090315737 0.5576793223 1.836709923e-40
-0.6065031877 -2.265109027 1.866707795 -0.2087450247 -0.7620734949 0.6129188389 7.346839693e-40
-0.6540773152 -2.116745825 2.013260948 -0.2260751754 -0.7148474856 0.6617273513 3.673419846e-39
-0.6990332887 -1.960173263 2.151573791 -0.2386495737 -0.6638024713 0.7088107364 0
-0.7413635837 -1.795942199 2.281752142 -0.2514042572 -0.6102429936 0.7512651916 0
-0.7797287392 -1.621594288 2.399765409 -0.2616274538 -0.5497456446 0.793303726 0
-0.8136737608 -1.43778409 2.504230078 -0.2707068313 -0.4881503809 0.8297150216 9.183549616e-41
-0.8433485881 -1.246354419 2.595557969 -0.2826104802 -0.4214159861 0.8617075392 2.755064885e-40
-0.8688140893 -1.048650623 2.673918156 -0.2954731132 -0.3564639867 0.8863571885 2.755064885e-40
-0.8902215613 -0.8458726419 2.739695227 -0.3114435815 -0.290892573 0.9046460117 3.673419846e-40
-0.9069131315 -0.6383917603 2.790879581 -0.3302448956 -0.2192534926 0.9180774558 0
-0.9176981858 -0.4269783594 2.824355037 -0.3414410682 -0.1388184517 0.9295953068 0
-0.9231505357 -0.2137040151 2.841707349 -0.343630385 -0.07003251592 0.9364900454 0
-0.9254839735 5.347063247e-05 2.848856498 -0.3414557083 -0.01165139837 0.9398256456 0
-0.9249845643 0.2140668855 2.846708126 -0.3429618923 0.05724045639 0.9376036852 0
-0.919837965 0.4278577177 2.83012663 -0.3440267215 0.1413237844 0.9282635417 9.183549616e-41
-0.6657371081 0.5760760568 2.898817985 -0.2591155482 0.2185859596 0.9407865385 1.836709923e-40
-0.8899419473 0.8456220207 2.738901157 -0.3072360309 0.2942733174 0.9049912906 0
-0.8683827345 1.048112583 2.672595744 -0.2833148782 0.3647881055 0.8869398615 1.836709923e-40
-0.8428281331 1.245512777 2.593867745 -0.2631416843 0.4309721884 0.8631450787 1.836709923e-40
-0.8123309949 1.435058923 2.499642863 -0.2436751308 0.4954016005 0.8337863544 0
-0.7776083143 1.616343481 2.392117517 -0.2251239845 0.5516823585 0.8030976073 0
-0.7400654795 1.791959416 2.276561526 -0.2127231567 0.6015446838 0.7699953585 3.673419846e-40
-0.6998140763 1.962035633 2.153393368 -0.2044648879 0.6473676074 0.7342406217 9.183549616e-41
-0.6560298128 2.123144223 2.019285902 -0.1941311463 0.7000561648 0.6871931782 9.183549616e-41
-0.6082280753 2.271979949 1.872372724 -0.1818013357 0.7553145979 0.6296412729 0
-0.5569058907 2.408011478 1.714316602 -0.1699258043 0.8070573588 0.5654941561 0
-0.5023187046 2.529596349 1.545979335 -0.1627153199 0.8500253536 0.5009796632 0
-0.445275151 2.638664555 1.370151939 -0.1553942099 0.8860962832 0.4366761002 0
-0.3860897915 2.735342819 1.187804472 -0.1397738003 0.9205258167 0.3648225672 0
-0.3247237702 2.817109123 0.9989821168 -0.114289573 0.9505590964 0.2887478099 3.122406869e-39
-0.2613816273 2.880807522 0.8043254465 -0.08421053236 0.9746957626 0.2070670339 0
-0.1969127924 2.929265032 0.606145985 -0.06619512555 0.9859213383 0.1535490803 0
-0.1317287941 2.965711246 0.4056222663 -0.05401326646 0.9921663604 0.1126431548 0
-0.06602720205 2.989703474 0.2033739663 0.04054161699 -0.9971608518 -0.06345559867 0
3.69992987e-05 2.998056847 1.403890663e-05 0.01903690675 -0.9997926885 0.007223308706 0
2.345034485e-05 -2.9962766 4.168750418e-05 0.006297580799 0.999917501 0.01119516269 9.183549616e-41
-0.0801028489 -2.989971994 0.1983054726 0.02910925579 0.9981357703 -0.05364359536 9.183549616e-41
-0.1380110189 -2.983591873 0.1767308116 0.05217569705 0.9976623343 -0.04413120618 9.183549616e-41
-0.2392804604 -2.937984351 0.5922887114 -0.05958423736 -0.9861428774 0.1548287568 9.183549616e-41
-0.3171361902 -2.884235494 0.7849615088 -0.08767492393 -0.971393699 0.2206975064 0
-0.3926867289 -2.8104848 0.9719332011 -0.1242829047 -0.9428875609 0.3090579348 1.653038931e-39
-0.5404555546 -2.715897527 1.135692691 -0.1753722611 -0.9134961815 0.3671093794 0
-0.5376973014 -2.628457378 1.330837608 -0.1726997931 -0.886464688 0.4293659725 3.948926335e-39
-0.6073514302 -2.522769565 1.503252896 -0.198607318 -0.850535906 0.4869741326 7.346839693e-40
-0.6733629722 -2.401207963 1.666641108 -0.2273820537 -0.8071516582 0.5447968451 3.489748854e-39
-0.7348694467 -2.264002783 1.81897693 -0.2521734964 -0.7607252771 0.5980849275 6.428484731e-40
-0.7924057559 -2.115413773 1.961521085 -0.2726147769 -0.7141192907 0.6447595072 2.755064885e-40
-0.8471714578 -1.95956988 2.096980012 -0.286521777 -0.6664644035 0.6882808076 0
-0.8986940475 -1.795847654 2.224372041 -0.2990492912 -0.6120572058 0.7320898157 0
-0.945411083 -1.621911392 2.339974547 -0.3127003277 -0.5509348886 0.7737501235 0
-0.9867231439 -1.438295667 2.442219881 -0.3288149305 -0.4874524252 0.8088701223 9.183549616e-41
-1.022504875 -1.246539943 2.53078063 -0.3440410161 -0.4184802338 0.8405415357 2.755064885e-40
-1.053045083 -1.048473112 2.606372709 -0.3588629701 -0.3506960043 0.8650027059 2.755064885e-40
-1.077666532 -0.8447208653 2.667386605 -0.373378859 -0.2822941545 0.8836844674 2.755064885e-40
-1.095559165 -0.6362955724 2.711967919 -0.3851173603 -0.2092001695 0.8988436504 9.183549616e-41
-1.107386672 -0.4251902267 2.741668331 -0.392494867 -0.1378685646 0.909362435 9.183549616e-41
-1.180809457 -0.3773453192 2.714607755 -0.4079573174 -0.1262690894 0.9042272636 9.183549616e-41
-1.120387992 0.0001192030766 2.773426012 -0.3890327013 -0.01351304025 0.9211248314 0
-1.1198892 0.2138547307 2.771946391 -0.3895292031 0.0594281875 0.9190948213 0
-1.112228987 0.4268897265 2.752881136 -0.3866205018 0.1394226625 0.911639133 0
-1.097967078 0.6375993407 2.717575865 -0.3751707497 0.2131539791 0.9021154526 9.183549616e-41
-1.078410507 0.845285949 2.669161784 -0.3574688304 0.278466036 0.8914441666 1.836709923e-40
-1.053837214 1.049310843 2.60845811 -0.3347599626 0.3514963203 0.874291773 9.183549616e-41
-1.023401374 1.247781485 2.533253993 -0.3152041243 0.4252130884 0.8484339629 1.836709923e-40
-0.9868671221 1.438588489 2.442707205 -0.3005308218 0.4919256036 0.8171232622 5.510129769e-40
-0.9452714878 1.621638055 2.339582537 -0.2816450979 0.5491029163 0.7868684936 3.673419846e-40
-0.8997892728 1.798115892 2.227099904 -0.26665065 0.6025453082 0.7522210994 3.489748854e-39
-0.8505569735 1.967722071 2.105613143 -0.2548296577 0.6501685761 0.7157811595 3.489748854e-39
-0.7968804683 2.127867504 1.973062513 -0.2389053169 0.7046104461 0.6681679196 0
-0.7385905193 2.276139337 1.828660115 -0.2260716087 0.7598713399 0.6094974771 0
-0.67594911 2.411140546 1.673313837 -0.2105391314 0.8115236809 0.5450711783 0
-0.74061167 2.467200153 1.569470063 -0.237560801 0.832678649 0.5002110888 0
-0.5394537792 2.637175719 1.335021543 -0.1853632876 0.8876346654 0.4215983306 0
-0.4674965216 2.732489399 1.156883348 -0.1651618335 0.9202709295 0.3547153577 0
-0.3932605066 2.814589009 0.9731646078 -0.1335436257 0.9499416557 0.2824481383 3.122406869e-39
-0.3167056581 2.879369412 0.7838386252 -0.0974317058 0.9744377905 0.2024303712 0
-0.2386694583 2.928609252 0.5908295069 -0.0750712148 0.9857799027 0.1503406001 0
0.02273137792 2.962054714 0.4667425139 -0.0115477178 0.9919135621 0.1263888264 0
-0.08003706473 2.989341616 0.1982468792 0.044755704 -0.9970869942 -0.06176125834 0
3.69992987e-05 2.998056847 1.403890663e-05 0.01903690675 -0.9997926885 0.007223308706 0
2.345034485e-05 -2.9962766 4.168750418e-05 0.006297580799 0.999917501 0.01119516269 9.183549616e-41
-0.09373102781 -2.989733276 0.1922228876 0.03352001804 0.9981206897 -0.05129812156 9.183549616e-41
-0.1872263905 -2.970738651 0.3838638952 -0.05164357764 -0.9936104995 0.1003549505 9.183549616e-41
-0.280044162 -2.938312723 0.5741988436 -0.07127852476 -0.9861929506 0.1494752022 9.183549616e-41
-0.3711602135 -2.88457679 0.7610017937 -0.1035304609 -0.9713417983 0.2139545617 0
-0.4595314872 -2.810502452 0.942178728 -0.1456221797 -0.9428283241 0.2997814737 1.653038931e-39
-0.5451770836 -2.72293632 1.117751346 -0.1751566835 -0.9150513603 0.3633196172 9.183549616e-41
-0.6292397367 -2.62855639 1.290125426 -0.2030074094 -0.885636803 0.4176546957 3.948926335e-39
-0.7106347006 -2.52242942 1.457035314 -0.2357267556 -0.8496890661 0.4716581258 3.948926335e-39
-0.7875143393 -2.399820584 1.614697002 -0.2695013987 -0.804850993 0.5287569151 3.489748854e-39
-0.8593947933 -2.26263974 1.762248329 -0.3000168313 -0.7591979128 0.5775884609 3.489748854e-39
-0.9269933393 -2.11473172 1.900894019 -0.3182186538 -0.7150116033 0.6224912012 1.836709923e-40
-0.9914794194 -1.959720193 2.032959211 -0.332584369 -0.6690219091 0.6646783603 9.183549616e-41
-1.051890597 -1.796220389 2.156703044 -0.3471874115 -0.6139357363 0.7089032466 9.183549616e-41
-1.106673257 -1.622417671 2.269015468 -0.3663324565 -0.5506949039 0.750023769 9.183549616e-41
-1.15468848 -1.438301305 2.367455826 -0.3856364896 -0.4847037309 0.7850775701 9.183549616e-41
-1.196448657 -1.24642894 2.45307567 -0.4054682254 -0.4156559528 0.8141410486 1.836709923e-40
-1.231694132 -1.04798113 2.525380006 -0.4220558506 -0.3465514847 0.8377176896 1.836709923e-40
-1.260037151 -0.8440356863 2.583594612 -0.433727629 -0.2792227767 0.8566883825 3.673419846e-40
-1.280992749 -0.635744264 2.626670754 -0.4389813208 -0.2106910681 0.8734441446 9.183549616e-41
-1.295758731 -0.4250133229 2.656832886 -0.4378129815 -0.1416545726 0.8878365701 0
-1.306472778 -0.2130697283 2.678634347 -0.4359981924 -0.07812020821 0.8965505057 0
-1.31255535 7.16842308e-05 2.691115711 -0.4368865251 -0.01224267765 0.899433311 0
-1.311046201 0.2139187912 2.688049168 -0.4390414244 0.06051660616 0.8964264432 9.183549616e-41
-1.301234337 0.4267893846 2.667929716 -0.4356122974 0.1370318783 0.889642732 9.183549616e-41
-1.284625883 0.6374872392 2.633867187 -0.426608317 0.2055054668 0.8807796813 9.183549616e-41
-1.263677795 0.8463908478 2.591054085 -0.4108884003 0.2670728917 0.8716896197 1.836709923e-40
-1.236428247 1.052060319 2.535533703 -0.3942862403 0.3416326934 0.8531268742 2.755064885e-40
-1.201231177 1.25189301 2.463678983 -0.3732568005 0.4248649998 0.8247236463 4.591774808e-40
-1.158610866 1.443728238 2.376205282 -0.3588096907 0.4918471277 0.7933107896 3.489748854e-39
-1.110516497 1.628582895 2.277597222 -0.3436299912 0.5485045785 0.7622736756 3.489748854e-39
-1.056702554 1.805063389 2.167270495 -0.32582487 0.60406034 0.7272889795 3.489748854e-39
-1.019916333 2.114208068 1.895866517 -0.3290400832 0.7053926053 0.6278167695 0
-0.9344967111 2.13226096 1.916545914 -0.2957309458 0.7078150262 0.6415146892 0
-0.8656428525 2.279467274 1.775059281 -0.2769597582 0.7644627066 0.5821426479 3.673419846e-40
-0.7918143125 2.413387177 1.623417003 -0.2557797018 0.8140397135 0.5214557402 0
-0.7131843126 2.531722991 1.462077383 -0.2341974538 0.8552795809 0.4622211496 0
-0.6310410537 2.636268529 1.293714101 -0.2129483783 0.888779708 0.4058615759 0
-0.5466907031 2.730735491 1.120805562 -0.1865102284 0.9202072549 0.344140295 0
-0.4599026799 2.812838479 0.9428673973 -0.1515531129 0.949140208 0.2759792011 3.122406869e-39
-0.3705060009 2.878440885 0.7596509093 -0.1093869834 0.9741129204 0.1978345424 0
-0.2792690882 2.928166453 0.5726709223 -0.08380546732 0.9856681109 0.146407031 0
-0.1868482639 2.964855746 0.3832398333 -0.06713712781 0.9920297091 0.1066286189 0
-0.2237853637 2.979336311 0.2166754629 0.08321576099 -0.9945868921 -0.06222580811 0
3.69992987e-05 2.998056847 1.403890663e-05 0.01903690675 -0.9997926885 0.007223308706 0
-0.08040320849 -2.978225066 -0.2481949747 0.02813307841 0.9960253629 0.08451039163 9.183549616e-41
-0.1069000596 -2.989484697 0.1852046582 0.03778624302 0.9981007989 -0.04865177272 9.183549616e-41
-0.2135403078 -2.970606031 0.3698547757 0.05922545942 0.9936450709 -0.09571738666 9.183549616e-41
-0.1885399053 -2.917368133 0.7095477618 -0.03957209282 -0.9812308632 0.1887327278 9.183549616e-41
-0.423382408 -2.884865394 0.7333170564 -0.1191679485 -0.9712727138 0.2059813472 0
-0.5241172072 -2.810400055 0.9077974466 -0.1660286626 -0.9431404876 0.287959205 1.653038931e-39
-0.6218618255 -2.723104354 1.077065143 -0.1992402511 -0.9153103581 0.350014672 9.183549616e-41
-0.717703269 -2.628590839 1.243094682 -0.2328288574 -0.8846159537 0.4040363072 9.183549616e-41
-0.8101856616 -2.521347814 1.403327894 -0.2723672763 -0.8473356398 0.4558929484 3.948926335e-39
-0.897188379 -2.397191541 1.554158531 -0.3127614338 -0.8021519529 0.5086575764 7.346839693e-40
-0.9790465815 -2.260077435 1.696137127 -0.3431058669 -0.7583591491 0.5542289825 1.836709923e-40
-0.8594387023 -2.083337983 1.965714544 -0.2959016892 -0.7074120677 0.641880329 4.591774808e-40
-1.131029854 -1.959950464 1.959106077 -0.3766608725 -0.6724181496 0.6371659276 1.836709923e-40
-1.200198983 -1.796874362 2.078811395 -0.3948525146 -0.6176112645 0.6801821944 1.836709923e-40
-1.262458917 -1.622684041 2.186642413 -0.4177923789 -0.5499069082 0.7232232854 9.183549616e-41
-1.316772594 -1.438024321 2.280714356 -0.4404406759 -0.4807409413 0.7582217079 0
-1.363458148 -1.245365327 2.361611717 -0.4624620486 -0.4110069499 0.7856221361 2.755064885e-40
-1.402619156 -1.046386229 2.429555037 -0.4804471644 -0.3435928653 0.8069166408 2.755064885e-40
-1.435382203 -0.8429817569 2.486331912 -0.4895162527 -0.2812168759 0.8254034814 9.183549616e-41
-1.461862847 -0.6359877601 2.532097861 -0.4922343074 -0.2179650298 0.8427316491 0
-1.481097689 -0.4258374301 2.565267559 -0.4903608142 -0.1493671289 0.8586243257 9.183549616e-41
-1.493620948 -0.2136040042 2.586927142 -0.4900865828 -0.07925509909 0.8680632296 9.183549616e-41
-1.499126195 1.778156392e-05 2.596538084 -0.4939287235 -0.0100512385 0.8694442988 9.183549616e-41
-1.496289235 0.2140318 2.591650097 -0.4968131299 0.06374599814 0.865513236 1.836709923e-40
-1.484580613 0.4269025343 2.571369563 -0.4959855427 0.1373917809 0.8573924656 1.836709923e-40
-1.466094078 0.6378496354 2.539346396 -0.4914040844 0.202155587 0.8471452913 1.836709923e-40
-1.442967751 0.8472226655 2.499294198 -0.4824846772 0.2620581293 0.8357835085 4.591774808e-40
-1.413577559 1.054261357 2.448429366 -0.4695455418 0.3379966636 0.8156501944 3.673419846e-40
-1.374190892 1.255398843 2.380335597 -0.4498095851 0.4226122747 0.7868101438 3.489748854e-39
-1.431741849 1.164113898 2.400501617 -0.475972243 0.3776455088 0.794250775 3.673419846e-40
-1.367652788 1.689313327 2.110451686 -0.4606854803 0.5687112577 0.6814223313 2.755064885e-40
-1.208127617 1.809166254 2.0927542 -0.3921437679 0.6074922435 0.6907795882 2.755064885e-40
-1.139639992 1.975090255 1.973937785 -0.3762275706 0.6571912456 0.6531098544 9.183549616e-41
-1.066718121 2.133497149 1.847476882 -0.3543362307 0.7122350071 0.6059431742 3.673419846e-40
-0.9877808295 2.28005276 1.710585529 -0.3287455177 0.7667537127 0.5513756693 9.183549616e-41
-0.9029755656 2.412759765 1.563761335 -0.2971282665 0.8151710512 0.4972031281 9.183549616e-41
-0.8132586444 2.531095671 1.408408005 -0.2681868621 0.8562525678 0.4414831222 0
-0.7195050232 2.635376192 1.246150133 -0.2400609859 0.8891809768 0.389522674 0
-0.6233042698 2.729701556 1.07957112 -0.2075545675 0.9199415718 0.3326087881 0
-0.5243803621 2.811887642 0.9082276428 -0.1681794118 0.9487003504 0.2677374286 3.122406869e-39
-0.4225324198 2.877946449 0.7318578974 -0.121478129 0.9739251111 0.1916062165 0
-0.3185340136 2.928089838 0.5517789714 -0.09233630763 0.9855893184 0.1417310896 0
-0.2131078758 2.964547924 0.3692352946 -0.07352117258 0.9919810493 0.1028019215 0
-0.1068143325 2.988676004 0.1851328014 0.05267217986 -0.996961788 -0.05738322629 0
3.69992987e-05 2.998056847 1.403890663e-05 0.01903690675 -0.9997926885 0.007223308706 0
2.345034485e-05 -2.9962766 4.168750418e-05 0.006297580799 0.999917501 0.01119516269 9.183549616e-41
-0.1195457516 -2.989226805 0.1772852259 0.04188814815 0.9980756006 -0.04572175027 9.183549616e-41
-0.2388084028 -2.970422465 0.3540404481 0.06643511457 0.9936648877 -0.0906447271 9.183549616e-41
-0.3572705527 -2.938526543 0.5296478013 -0.09402990607 -0.9862961057 0.1355668418 9.183549616e-41
-0.3369030873 -2.937685201 0.5536491743 -0.0857187406 -0.9859954182 0.1430570965 9.183549616e-41
-0.5862187776 -2.810672395 0.8691051913 -0.1861434286 -0.9431452178 0.2753683391 1.653038931e-39
-0.6955827654 -2.723528778 1.031223699 -0.2232404738 -0.9156068576 0.3344065986 9.183549616e-41
-0.8026526255 -2.628576439 1.18998494 -0.2624459261 -0.8833267578 0.3884018214 3.030571373e-39
-0.9054197734 -2.519526229 1.342435224 -0.3085467404 -0.8441280272 0.4384595566 1.010190458e-39
-1.001578889 -2.393071754 1.485265373 -0.3512994889 -0.7997468867 0.4868198705 9.183549616e-41
-1.092591747 -2.255361306 1.620413427 -0.3817862874 -0.7578386869 0.5290744327 9.183549616e-41
-1.180241695 -2.110586799 1.750222726 -0.4016112854 -0.7201821822 0.565726082 9.183549616e-41
-1.264525467 -1.959224191 1.874845724 -0.4177323979 -0.6774404119 0.6054536581 1.836709923e-40
-1.342480291 -1.797143626 1.990311624 -0.4404172433 -0.618793725 0.6504821118 1.836709923e-40
-1.411958525 -1.622733838 2.093316557 -0.4666995202 -0.5491941031 0.6932368967 1.836709923e-40
-1.472249179 -1.437623971 2.18269874 -0.4906044556 -0.4773314142 0.7290143957 9.183549616e-41
-1.523260458 -1.244082309 2.258370028 -0.514103663 -0.4089534496 0.7539592163 1.836709923e-40
-1.565711501 -1.044472389 2.321359782 -0.5296522593 -0.3406360361 0.7768111579 1.836709923e-40
-1.702524841 -0.9262127797 2.268141668 -0.5712364328 -0.3060581997 0.7615886792 9.183549616e-41
-1.635244067 -0.6360453431 2.42435035 -0.5449327904 -0.2250413528 0.8077156947 9.183549616e-41
-1.659400239 -0.4266313925 2.460145968 -0.5486619277 -0.1557358408 0.8214112472 1.836709923e-40
-1.67331248 -0.2140187238 2.480787989 -0.5504850276 -0.08031132087 0.83097312 1.836709923e-40
-1.678091515 -6.042425245e-06 2.487884721 -0.5532952222 -0.006519527689 0.8329597186 1.836709923e-40
-1.67403152 0.2141063979 2.481856245 -0.557024584 0.0680669846 0.8277019381 9.183549616e-41
-1.660707961 0.4269960601 2.462099368 -0.5554947289 0.1399581403 0.8196568337 9.183549616e-41
-1.639631167 0.6378406499 2.430842462 -0.5542788946 0.2055626412 0.8065475234 1.836709923e-40
-1.61287812 0.8467541794 2.390991058 -0.5547688011 0.2654370259 0.7885269575 0
-1.579414874 1.053074346 2.340973682 -0.5465906064 0.3363622595 0.7668762217 3.673419846e-40
-1.536179155 1.254367864 2.276711833 -0.5259696244 0.4188634794 0.7402089839 3.673419846e-40
-1.483319884 1.448316246 2.198250791 -0.5061455833 0.4888022895 0.7105553957 7.346839693e-40
-1.421278313 1.633243674 2.106200845 -0.4873592382 0.5512377877 0.6772133152 4.591774808e-40
-1.34953342 1.806450092 2.000078003 -0.4651166425 0.6107378441 0.6408321111 4.591774808e-40
-1.272737636 1.971869073 1.886364126 -0.4435017625 0.6584314596 0.608090618 4.591774808e-40
-1.191648028 2.130648385 1.766078735 -0.4139064735 0.7122519372 0.5669026452 4.591774808e-40
-1.058094136 2.190380986 1.786301229 -0.354478805 0.734785505 0.5783035868 0
-1.008964534 2.410319649 1.495533203 -0.3392786253 0.8129726516 0.4732499151 9.183549616e-41
-0.9087110684 2.528747913 1.347092483 -0.2992168682 0.8558943123 0.4217987577 0
-0.8044689561 2.634680177 1.192635229 -0.2656910942 0.889069938 0.3727772631 0
-0.6969902582 2.729293108 1.033322131 -0.2289119409 0.9193894456 0.3198786812 0
-0.5863690817 2.811442616 0.8693183367 -0.1844358192 0.9483411053 0.258132866 3.122406869e-39
-0.4725361097 2.877802433 0.7005725382 -0.1330529495 0.9738071198 0.184381686 0
-0.6006583955 2.864800125 0.6573328112 -0.1680691829 0.9697033876 0.177279694 0
-0.2383358329 2.964363366 0.3534461958 0.07944064022 -0.9919548045 -0.09856394137 0
-0.09041232997 2.964523519 0.4149757016 -0.039188482 0.9924296191 0.1163946479 0
3.69992987e-05 2.998056847 1.403890663e-05 0.01903690675 -0.9997926885 0.007223308706 0
2.345034485e-05 -2.9962766 4.168750418e-05 0.006297580799 0.999917501 0.01119516269 9.183549616e-41
-0.1316064952 -2.988960289 0.1685034233 0.04580617783 0.9980447101 -0.04252705953 9.183549616e-41
-0.2629054347 -2.970168291 0.336497024 0.07360385961 0.9936662713 -0.08491061807 9.183549616e-41
-0.3933554003 -2.938553922 0.5034332915 -0.1040793462 -0.9863167088 0.1278547603 9.183549616e-41
-0.5213873123 -2.885216104 0.667317644 -0.1487144276 -0.9711620631 0.1863552153 9.183549616e-41
-0.6454294098 -2.810731445 0.8261119932 -0.2042413069 -0.9434163495 0.2612490766 1.653038931e-39
-0.7659456784 -2.723970114 0.9803422258 -0.2452701292 -0.9157092219 0.3183067462 9.183549616e-41
-0.8838754778 -2.62911737 1.131312369 -0.2903165361 -0.8821552041 0.3708348754 4.591774808e-39
-0.9960842526 -2.517661605 1.275049507 -0.3408180058 -0.8412448715 0.4197024578 4.591774808e-39
-1.100288909 -2.387992364 1.408780345 -0.3844360154 -0.7979139098 0.4642653796 1.010190458e-39
-1.199535463 -2.24902834 1.53601874 -0.4152480918 -0.7579535902 0.5030659772 9.183549616e-41
-1.296654598 -2.105726238 1.660070648 -0.4344340366 -0.7237357087 0.5361657317 9.183549616e-41
-1.391002887 -1.957294283 1.780472606 -0.4538415488 -0.6812960001 0.5743375392 9.183549616e-41
-1.47776683 -1.796776715 1.89145077 -0.481671624 -0.6201833979 0.6191647597 9.183549616e-41
-1.554484644 -1.6226745 1.989653851 -0.5129983848 -0.5492032169 0.6597033301 2.755064885e-40
-1.621233464 -1.437901167 2.075085171 -0.5393541531 -0.4778957394 0.6933345223 1.836709923e-40
-1.676809616 -1.243874738 2.146199873 -0.5608269694 -0.4069564861 0.7210128492 0
-1.723037099 -1.04396625 2.205341884 -0.5771110357 -0.3408469257 0.7421362582 0
-1.763700582 -0.8410939558 2.257391451 -0.5886499645 -0.2852683465 0.756381643 9.183549616e-41
-1.800169591 -0.6359478821 2.304093434 -0.5984007351 -0.2271213365 0.7683309565 9.183549616e-41
-1.827845432 -0.4268557595 2.339532949 -0.6057065117 -0.1584165741 0.7797588157 9.183549616e-41
-1.843648828 -0.2141960139 2.359767297 -0.6127417044 -0.07980147202 0.78624381 2.755064885e-40
-1.848217523 -1.009729947e-05 2.365608723 -0.6160972284 -0.005044953465 0.7876539555 1.836709923e-40
-1.843158314 0.2141183259 2.359131192 -0.6154420724 0.07049612799 0.7850231535 9.183549616e-41
-1.828228918 0.4269549907 2.34002565 -0.6135075126 0.1456377543 0.7761431417 0
-1.804078374 0.6374522431 2.30913909 -0.6116138253 0.2138816733 0.7616975505 9.183549616e-41
-1.77166954 0.8449740387 2.267663966 -0.6100490003 0.2733779363 0.7437101056 9.183549616e-41
-1.732928268 1.049741802 2.217833386 -0.604681765 0.3404134927 0.7200545931 1.836709923e-40
-1.685200291 1.249883083 2.156396067 -0.589909862 0.4188232364 0.6903574809 4.591774808e-40
-1.626310319 1.442244432 2.080879483 -0.5728652573 0.4906679861 0.6565594599 4.591774808e-40
-1.556405312 1.624521975 1.991651201 -0.5585890739 0.5535600492 0.6176969471 4.591774808e-40
-1.47776313 1.796897781 1.891599669 -0.5348494805 0.6069864244 0.5877954694 9.183549616e-41
-1.39550549 1.964124188 1.786218465 -0.5020450904 0.6528701173 0.5671960305 9.183549616e-41
-1.308520988 2.125164669 1.674546431 -0.460549255 0.70656782 0.5372674376 0
-1.21299279 2.273615871 1.552260721 -0.4158715581 0.7619434099 0.4964807018 9.183549616e-41
-1.109318756 2.406993971 1.419697184 -0.3719789954 0.8113020141 0.4510218054 9.183549616e-41
-0.9996425214 2.526599087 1.279425639 -0.3275949794 0.8551739257 0.4016952655 0
-0.8856464476 2.634515842 1.133551882 -0.2890924203 0.8887766247 0.3556707521 0
-0.767321249 2.729102987 0.9821233035 -0.249444461 0.9189464197 0.3054749395 0
-0.6455680313 2.811380692 0.8262830728 -0.2017403293 0.9477997996 0.2469339575 3.122406869e-39
-0.5202813226 2.877976672 0.6659339785 -0.1440947892 0.9737530038 0.1761867741 0
-0.3922545761 2.928269999 0.5020913731 -0.1088470083 0.9854569268 0.1304874486 0
-0.2624054437 2.964239792 0.3359436677 0.08503134431 -0.9919680952 -0.09364277145 0
-0.1315069491 2.988124538 0.1684292892 0.06016539697 -0.996856374 -0.05155089431 0
3.69992987e-05 2.998056847 1.403890663e-05 0.01903690675 -0.9997926885 0.007223308706 0
2.345034485e-05 -2.9962766 4.168750418e-05 0.006297580799 0.999917501 0.01119516269 9.183549616e-41
-0.1430240594 -2.988696843 0.1589030944 0.04953464463 0.9980113718 -0.03898231382 9.183549616e-41
-0.285713046 -2.969852394 0.3173123468 0.08040979393 0.9936493778 -0.07870945916 9.183549616e-41
-0.4965312338 -2.924956029 0.5289135372 -0.1286251324 -0.9825867888 0.1340849647 0
-0.5666658673 -2.885186942 0.6293091106 -0.1619110702 -0.9712631566 0.1744496659 9.183549616e-41
-0.9320014371 -2.795528392 0.5445396799 -0.2931846289 -0.941108791 0.1683954183 1.653038931e-39
-0.8326151953 -2.724488793 0.9246889051 -0.2669850991 -0.915326143 0.3014913079 9.183549616e-41
-0.9607342174 -2.62938902 1.066997313 -0.3155550233 -0.8812279168 0.3519408841 4.591774808e-39
-1.081886735 -2.516036578 1.201633201 -0.3683116666 -0.8388861902 0.4007698542 4.591774808e-39
-1.19382109 -2.383862474 1.326171026 -0.4110445246 -0.7966683373 0.443127475 4.591774808e-39
-1.301212567 -2.244172755 1.44545486 -0.4397923788 -0.7602251147 0.4781636106 1.010190458e-39
-1.395719341 -2.129240043 1.465984568 -0.4628787281 -0.7413231322 0.4859869306 1.010190458e-39
-1.510838295 -1.955772971 1.677892834 -0.4853918477 -0.684453351 0.5439837906 0
-1.606018433 -1.796656354 1.783648754 -0.5194712513 -0.6227513635 0.5850900429 0
-1.689667379 -1.622854145 1.876577654 -0.5555444395 -0.5495133986 0.6240235576 2.204051908e-39
-1.762441782 -1.438233149 1.957393823 -0.5858867649 -0.4778118526 0.6545475783 2.204051908e-39
-1.823608757 -1.244654224 2.025302656 -0.6086512904 -0.4069876426 0.6811054731 2.204051908e-39
-1.874365649 -1.044893147 2.081664072 -0.6277976394 -0.3401019421 0.7001434089 9.183549616e-41
-1.917782666 -0.8415295672 2.129952628 -0.6430235074 -0.2843258851 0.7111114962 1.836709923e-40
-1.956440496 -0.6359276469 2.172872445 -0.6531871688 -0.2275315935 0.722202116 3.673419846e-40
-1.986003184 -0.4267178402 2.205684723 -0.6624584175 -0.1570275363 0.7324555945 4.499939312e-39
-2.003595081 -0.2141714111 2.225205626 -0.6701448971 -0.07823975567 0.7380950871 2.755064885e-40
-2.008108957 -3.086578813e-06 2.23021849 -0.6749330649 -0.002904927841 0.7378732407 2.755064885e-40
-2.002251928 0.214014801 2.223726595 -0.6745404632 0.07332145323 0.7345877265 9.183549616e-41
-1.986279016 0.4267940041 2.206002183 -0.6694714358 0.148082399 0.727928293 9.183549616e-41
-1.959064409 0.6368807804 2.175822852 -0.6609699252 0.2196988247 0.7175313125 9.183549616e-41
-2.051691624 0.9761834533 1.946761382 -0.6875718086 0.3360931436 0.6436508424 1.836709923e-40
-1.877662497 1.04667885 2.085523672 -0.6439230884 0.3489039298 0.6809031532 2.755064885e-40
-1.824252752 1.245070183 2.026183347 -0.6308396624 0.427155241 0.647749736 4.591774808e-40
-1.758171668 1.434779462 1.95310294 -0.6171134024 0.498449898 0.6088667734 3.673419846e-40
-1.678854658 1.612799056 1.86613188 -0.6020584567 0.556471291 0.5725952471 9.183549616e-41
-1.594007623 1.784384455 1.772306941 -0.5783801383 0.5986901993 0.5541177319 9.183549616e-41
-1.509523197 1.955655267 1.677358096 -0.5434036251 0.6414606831 0.5415170286 9.183549616e-41
-1.419124312 2.120877056 1.5761225 -0.4981747281 0.698720428 0.5134313039 3.673419846e-39
-1.316559363 2.270631345 1.462078556 -0.4479396893 0.7586360092 0.4730977069 1.836709923e-40
-1.204271854 2.404222833 1.337425512 -0.4008961241 0.8097592463 0.4284533354 9.183549616e-41
-1.085798017 2.525012405 1.205881614 -0.3547436479 0.8538790958 0.3808509342 0
-1.095685885 2.599277679 1.021345724 -0.3571580632 0.8778445406 0.3191035576 0
-0.8340824325 2.729513566 0.9263346946 -0.2702759254 0.9184692301 0.2887303197 0
-0.7016993758 2.811666771 0.7793091528 -0.2177118016 0.9476133458 0.2337317229 3.122406869e-39
-0.5654952409 2.878151279 0.6280480857 -0.1556749494 0.9735947059 0.1669690353 0
-0.4263531193 2.928493114 0.4735307049 -0.1165854553 0.9854599032 0.1235985872 0
-0.2852019605 2.964200109 0.3168113918 0.0903882983 -0.9919572553 -0.08860451005 0
0.07000973668 3.002129268 -0.07733651423 0.003393920089 -0.9993782892 0.0350929664 0
3.69992987e-05 2.998056847 1.403890663e-05 0.01903690675 -0.9997926885 0.007223308706 0
2.345034485e-05 -2.9962766 4.168750418e-05 0.006297580799 0.999917501 0.01119516269 9.183549616e-41
-0.153744469 -2.988462881 0.1485312759 0.05302532507 0.9979682582 -0.03532238 9.183549616e-41
-0.3071198361 -2.969483239 0.2965819528 0.08689781982 0.9936067252 -0.0720724951 9.183549616e-41
-0.4595422567 -2.938036617 0.4437172779 -0.1229468882 -0.986283935 0.1101274818 0
-0.4429496889 -2.899322348 0.6587584215 -0.1237632023 -0.9760201845 0.1790733629 0
-0.7539826254 -2.810179578 0.7281123418 -0.2367009178 -0.9442376868 0.2288839584 1.653038931e-39
-0.8950923301 -2.724464276 0.864353106 -0.2855442817 -0.916111113 0.2814336366 9.183549616e-41
-1.032961898 -2.629743157 0.997501587 -0.3386066049 -0.8804728207 0.3318330591 4.591774808e-40
-1.162923769 -2.515635062 1.122985415 -0.3907634459 -0.8378611782 0.381172632 4.591774808e-39
-1.246347911 -2.350635475 1.304283913 -0.4329408232 -0.7864711893 0.4404830439 4.591774808e-39
-1.398645043 -2.24316206 1.350272594 -0.4601949875 -0.7614525955 0.4565200086 2.755064885e-40
-1.51336372 -2.102391743 1.46103075 -0.4846248163 -0.7288221104 0.4836911399 1.010190458e-39
-1.625101656 -1.956829553 1.569147539 -0.514862647 -0.6857639167 0.5144359098 9.183549616e-41
-1.727292374 -1.797506825 1.668019692 -0.5559230547 -0.6227889817 0.5505301459 9.183549616e-41
-1.817364503 -1.623677829 1.755036547 -0.5982396973 -0.5460763361 0.5864383171 2.204051908e-39
-1.895507414 -1.438858466 1.830487917 -0.6279023103 -0.4783112466 0.6139682729 2.204051908e-39
-1.961665169 -1.245413603 1.894343888 -0.6538556732 -0.406208325 0.6383318536 1.836709923e-40
-2.016078912 -1.045454597 1.946867383 -0.6749967283 -0.3374473759 0.6561316067 1.836709923e-40
-2.060433416 -0.8410355346 1.989737988 -0.6900813872 -0.2823913357 0.6663653746 3.673419846e-40
-2.100130351 -0.6349175134 2.028082498 -0.7009437301 -0.2272018928 0.676060047 4.591774808e-40
-2.132339883 -0.4261266414 2.059176131 -0.7104287334 -0.1564464216 0.68615999 9.183549616e-41
-2.151454457 -0.2139073757 2.07764093 -0.7192063631 -0.07429297442 0.690813116 4.591774808e-40
-2.156043908 -7.83306972e-06 2.082100623 -0.7254052569 0.002876319992 0.6883160176 4.591774808e-40
-2.149832813 0.2137490635 2.076134225 -0.726136143 0.07252336729 0.6837153377 2.755064885e-40
-2.133112031 0.4263469702 2.059981793 -0.7188496775 0.1460120748 0.6796584548 9.183549616e-41
-2.104536908 0.6364193916 2.0323692 -0.7058155652 0.2163170337 0.6745601002 2.755064885e-40
-2.065124152 0.8429473832 1.994297836 -0.6916486689 0.2840005517 0.6640525623 9.183549616e-41
-2.016300677 1.045400997 1.947222449 -0.6776921995 0.3585043877 0.6420341788 1.836709923e-40
-1.956130207 1.241686056 1.88934103 -0.6618880312 0.4390237114 0.6075873723 1.836709923e-40
-1.881703896 1.428037901 1.818103762 -0.6446226677 0.5070059375 0.5721945435 3.673419846e-40
-1.794079277 1.602930896 1.734466526 -0.625559613 0.5561397379 0.547159723 9.183549616e-41
-1.740831946 1.813909048 1.539325589 -0.6150565385 0.5896936336 0.5234184492 9.183549616e-41
-1.618925208 1.951292949 1.563953173 -0.5707983447 0.6322797863 0.5238430314 9.183549616e-41
-1.524647839 2.119602135 1.472374761 -0.5259049455 0.6938532335 0.4919264972 1.836709923e-40
-1.41473641 2.269689934 1.366162309 -0.4754613763 0.7565315703 0.4489949474 1.836709923e-40
-1.293895213 2.402839437 1.249485723 -0.4275117489 0.8090696622 0.4032864816 9.183549616e-41
-1.166826977 2.524014669 1.126788137 -0.3813981549 0.8529849743 0.3563033554 0
-1.034382127 2.633442604 0.9988864399 -0.3360469984 0.8879350781 0.3140759653 0
-0.8966681614 2.729513054 0.8658965686 -0.2893916822 0.918101192 0.2708184917 0
-0.754379 2.811773281 0.7284884571 -0.2342223356 0.9471631078 0.2191390992 4.316268319e-39
-0.6079717393 2.878405326 0.5871117739 -0.1664598149 0.9734831604 0.1569129265 0
-0.4583869146 2.92879871 0.4426702672 -0.1242533045 0.9854673909 0.1158237355 0
-0.3066139427 2.964227198 0.2961435138 0.09550947373 -0.9919800341 -0.08278618417 0
-0.1536330219 2.987599319 0.1484561939 0.06669989248 -0.9967754212 -0.04460811582 0
3.69992987e-05 2.998056847 1.403890663e-05 0.01903690675 -0.9997926885 0.007223308706 0
2.345034485e-05 -2.9962766 4.168750418e-05 0.006297580799 0.999917501 0.01119516269 9.183549616e-41
-0.1637091062 -2.988141212 0.1374349861 0.05630977076 0.9979178821 -0.03145012496 9.183549616e-41
-0.327022185 -2.969075641 0.2744091596 0.09275974753 0.9935552037 -0.06514358378 9.183549616e-41
-0.5684275527 -2.934736869 0.365764924 0.1492464791 0.9854108789 -0.08179784949 0
-0.6486060139 -2.884510133 0.5442099312 -0.1847387178 -0.9713725339 0.1493553028 9.183549616e-41
-0.8028129406 -2.809712047 0.6736397122 -0.251165023 -0.9446606977 0.2110267694 1.653038931e-39
-0.9532747037 -2.724674348 0.7998740704 -0.3048195847 -0.9163011565 0.2597637608 9.183549616e-41
-1.023809367 -2.641686439 0.9797220647 -0.3310178375 -0.8852561111 0.3267243623 4.591774808e-40
-1.239261779 -2.517238921 1.039779762 -0.4118684249 -0.8386370159 0.3564440436 4.591774808e-40
-1.468866051 -2.366572034 1.075662527 -0.4779260731 -0.7932836889 0.3772103624 4.591774808e-40
-1.492103717 -2.246837468 1.251251633 -0.4805587479 -0.7631197498 0.4321013045 4.591774808e-39
-1.614873434 -2.106802236 1.354466616 -0.5098440579 -0.7290982758 0.4565903425 5.510129769e-40
