# .PCD v0.7 - Point Cloud Data file format
VERSION 0.7
FIELDS x y z normal_x normal_y normal_z rgb
SIZE 4 4 4 4 4 4 4
TYPE F F F F F F F
COUNT 1 1 1 1 1 1 1
WIDTH 513
HEIGHT 1
VIEWPOINT 0 0 0 1 0 0 0
POINTS 513
DATA ascii
-6.374482949 4.266105123 1.324800232 0.9951625712 -0.05397092181 -0.08208895518 9.183549616e-40
-6.311475068 3.998772842 2.427691451 0.9747004339 -0.2005688656 -0.09864681602 3.673419846e-40
-6.020154494 1.24276495 0.2331751508 0.9868952536 0.05644643132 0.1511673208 2.755064885e-40
-6.699006328 3.306460464 1.329896281 0.9695174168 -0.2283900399 -0.08873538244 2.755064885e-40
-6.685665014 3.304927443 0.7291001303 0.9709518421 -0.2152032462 0.1045948524 0
7.141792223 -0.06515428596 -0.4770468633 -0.9645646805 -0.2220281612 0.1425428803 7.346839693e-40
-6.604530256 2.364155499 2.535190589 0.9670362093 0.2539258606 0.01904277546 9.183549616e-41
-6.419372278 1.831620259 0.7366952908 0.8450075841 0.5340789714 -0.02686698992 4.591774808e-40
-6.421132039 1.836445575 0.5421981085 0.8605121261 0.5051455009 0.06593105298 4.591774808e-40
-5.554482637 4.388685735 -1.002146206 0.7138764377 -0.2299974429 0.6614239246 6.428484731e-40
4.703145183 0.3200600977 -3.100742147 -0.300181132 -0.3958020142 0.8678894247 9.183549616e-41
-6.66387091 2.360317614 1.433544805 0.925177242 0.3527366255 -0.1400854881 3.673419846e-40
-3.850719425 7.065170789 -5.434895947 0.9878475052 0.1420882738 -0.06299388018 6.612155723e-39
-6.745672828 3.168452099 1.030589151 0.9857245129 -0.168204306 0.0073821429 2.755064885e-40
1.710415055 7.116569081 -2.852758406 0.2202222368 0.7183670007 0.6598871257 5.693800762e-39
-3.882046698 6.730344238 -5.600620971 -0.9276950606 0.3302568758 0.1741041947 5.050952289e-39
-3.854834919 6.700953248 -5.394185116 -0.9431758314 0.2543850553 0.2137933458 6.612155723e-39
-2.808847819 5.262269325 1.962273207 0.8693772934 0.2328310282 0.4358587317 9.183549616e-40
-3.765569684 6.522086251 -5.006598216 -0.9377725214 0.2464351133 0.2446475691 6.612155723e-39
-3.496426067 6.479358006 -3.653216049 0.9757962858 0.2072130901 0.06988808127 1.836709923e-40
-3.525351875 6.480198038 -3.353272128 0.950229921 0.2843417405 0.1273297758 9.183549616e-41
-3.539150981 6.479801877 -3.252868452 0.9381842941 0.3114112258 0.1511068454 9.183549616e-41
-3.491563223 5.851672234 -3.052125692 0.9942418162 -0.1055851083 0.01830289137 1.836709923e-40
-3.368451358 5.097182543 -1.298876509 -0.5992921822 -0.239315734 0.7639220247 1.377532442e-39
-5.036936168 1.865452074 4.00855751 -0.2065201421 -0.6505934815 0.7308060979 9.183549616e-41
-6.27733957 4.26619114 2.421392274 0.973764693 -0.1782143158 -0.141499047 3.673419846e-40
7.136811283 -0.4896685276 -0.8721137058 -0.9600200249 -0.1326152002 0.2465253747 1.836709923e-40
5.871220297 -0.708281951 -2.82344279 -0.5689841548 -0.178799047 0.8026754838 4.591774808e-40
-6.543513829 2.340989894 2.036259842 0.9354321283 0.3513417311 -0.03906048434 3.673419846e-40
-4.916384576 -1.868904706 2.475703233 -0.6233813534 -0.5067531358 0.5954804342 1.836709923e-40
6.66317384 0.8941071726 1.42000236 0.8794747571 0.3959060274 0.2641639057 9.183549616e-41
-4.514697214 -3.122623253 0.8356237941 -0.5945499998 -0.7835559204 0.1804173422 1.836709923e-40
-2.189205807 4.186733324 0.7448435427 0.8946407479 0.4188888755 0.1554028383 0
-2.571509634 4.800676503 1.253586205 0.9367826347 0.2201883323 0.2719474097 1.836709923e-40
-3.557906635 5.383066434 -2.253275357 0.9754451478 -0.2120214139 -0.05961278039 4.591774808e-40
-3.520492662 6.163467607 -2.854605871 0.9719071727 0.1867307074 0.1432762735 1.836709923e-40
7.17669683 -0.343615745 0.7210097481 -0.9809092554 -0.1659273876 -0.1014156531 9.183549616e-41
6.989541987 -0.2153558641 -1.181110848 -0.9134017116 -0.2165068922 0.3447057859 1.836709923e-40
-5.591856113 0.944050011 -1.145593046 0.8054806778 -0.2529460767 0.535928316 9.183549616e-41
-2.104724464 4.035363203 0.1453541892 -0.9054155206 -0.4209525986 0.05496948929 1.19386145e-39
-3.4734005 6.008532361 -3.353104009 0.9979572267 -0.06314077304 0.00972709994 1.836709923e-40
-4.895875685 1.672507696 3.840481882 -0.1111068684 -0.7867861717 0.6071431329 9.183549616e-41
-3.538512086 5.542244657 -2.252371464 0.9967757605 -0.0793730428 0.01174748397 4.591774808e-40
-1.411935582 5.422484624 -0.5507773862 0.6089392835 -0.6724373492 0.4207385891 6.428484731e-40
-5.009178606 5.757528178 -1.983914221 0.9997573423 0.01778055101 0.01300417033 1.836709923e-40
-2.403990242 4.333336746 1.243571338 0.8813090704 0.386044557 0.2725140776 1.836709923e-40
-2.37406797 4.335646597 1.144516027 0.8868959569 0.3862071627 0.2534947517 2.755064885e-40
7.0769891 -0.7753731362 -1.167375518 -0.9462557306 -0.07263189299 0.315158215 1.836709923e-40
8.630131105 -2.879197902 1.126079618 0.8686161525 0.3046012457 0.3907992589 1.285696946e-39
8.666593769 -2.876183247 1.025334853 0.8962525658 0.2968721209 0.3295425346 1.19386145e-39
8.696684352 -2.874976741 0.9228165404 0.9199789743 0.2854157681 0.268656893 1.836709923e-40
8.720185164 -2.873412619 0.8224427346 -0.9365334203 -0.2794432314 -0.2116993932 5.510129769e-40
8.737935505 -2.870830288 0.7229881026 -0.9473726776 -0.279016096 -0.1569554965 1.836709923e-40
8.750292942 -2.870071948 0.6221684564 -0.9553462373 -0.2759173482 -0.1057505737 9.183549616e-41
8.757460216 -2.867941376 0.5217310281 -0.9594491723 -0.2794318842 -0.03708244664 1.836709923e-40
8.759812037 -2.869283764 0.4205104893 -0.9595731911 -0.2811820837 0.01248706509 1.836709923e-40
8.755386371 -2.868270583 0.3191092084 -0.9573646806 -0.2812173587 0.0661034459 1.836709923e-40
8.746316863 -2.868374725 0.2176988823 -0.9515058326 -0.2847338567 0.1164615015 1.836709923e-40
8.733270736 -2.866696337 0.1141365215 -0.9389248203 -0.2920186677 0.1820584511 1.836709923e-40
8.715808962 -2.865996837 0.009915293278 -0.9187714628 -0.3063402402 0.2490274211 1.836709923e-40
8.687390174 -2.866390771 -0.094882169 -0.9031975763 -0.3089551996 0.2979611096 1.836709923e-40
8.655058747 -2.870363163 -0.1957481552 -0.8749937726 -0.3157240128 0.3670207701 1.836709923e-40
8.613730186 -2.87425427 -0.2964426821 -0.8378157795 -0.3313667311 0.4338903192 1.836709923e-40
8.565732019 -2.881881813 -0.3922524612 -0.8031048636 -0.3408157196 0.4887404458 1.836709923e-40
8.511340292 -2.892043466 -0.4817399875 -0.7656581119 -0.3513965626 0.5387839191 1.836709923e-40
8.448774616 -2.903131829 -0.5711658941 -0.7122755166 -0.3714250287 0.5955728641 1.836709923e-40
-5.213676718 5.0687625 -1.184546356 0.8176193199 -0.1063026193 0.565860761 6.428484731e-40
-6.311221745 5.213170884 0.3405681767 0.8905406184 -0.1928630352 0.4119966707 9.183549616e-40
-6.043991481 1.113219572 0.3413364151 0.9950051751 -0.005272563977 0.09968400835 2.755064885e-40
-6.029550081 1.364094937 0.2266558453 0.9677556759 0.1960099961 0.1582056675 2.755064885e-40
-6.385546637 2.06816924 1.837964159 0.8127647673 0.5774312341 -0.07737314039 3.673419846e-40
-6.380961882 2.064329429 1.937525445 0.813384743 0.5798443412 -0.04675253701 9.183549616e-41
-4.463997528 6.59320713 -5.070973688 0.8053944999 0.3667647026 0.4656429452 6.612155723e-39
6.784450254 -3.044963378 -1.373565118 -0.7300535032 -0.01767543973 0.6831613728 2.3877229e-39
6.735284829 -3.04797594 -1.464019216 -0.7538087201 0.02370846123 0.6566660661 2.3877229e-39
6.693538836 -3.048231037 -1.551827301 -0.768503052 0.06045563132 0.6369836542 2.3877229e-39
6.646670086 -3.049214654 -1.646767014 -0.7841878275 0.09795144362 0.6127438012 2.3877229e-39
6.597815649 -3.053009304 -1.749097167 -0.7964555309 0.1319093482 0.5901343162 2.3877229e-39
6.540633282 -3.059171063 -1.854223069 -0.8023877128 0.1600873842 0.5749312897 2.3877229e-39
6.483897312 -3.069805665 -1.967638241 -0.8079043556 0.1908316328 0.5575606157 2.3877229e-39
6.430466592 -3.07795447 -2.074565093 -0.8063802781 0.2051239923 0.5546845905 2.3877229e-39
6.351271625 -3.092678714 -2.190787055 -0.7913751583 0.2024707032 0.5768283742 1.19386145e-39
6.262046661 -3.105449635 -2.302773935 -0.762397677 0.194033542 0.6173335943 5.510129769e-40
6.177183848 -3.109621641 -2.396615401 -0.738553964 0.1870713313 0.6477208962 8.265194654e-40
6.094485085 -3.10984181 -2.480609716 -0.723700006 0.1776232006 0.6668645289 3.673419846e-40
6.002867446 -3.112716947 -2.566466857 -0.7078158703 0.1686095826 0.6859792289 4.591774808e-40
5.917196952 -3.114095505 -2.645119304 -0.6969530164 0.1614679719 0.6987020731 1.836709923e-40
5.817275983 -3.120713711 -2.731409993 -0.6866623287 0.1534589716 0.7105949552 7.346839693e-40
5.613687377 -3.153218812 -2.902041268 -0.679132215 0.1400657145 0.7205282994 4.591774808e-40
5.512602078 -3.160740857 -2.985971521 -0.6742327493 0.1275041246 0.7274289642 4.591774808e-40
-5.486401507 4.931912854 -0.8739723171 0.781561219 -0.2133707991 0.586203858 6.428484731e-40
-4.670144632 6.001544267 -4.204492526 0.8934736081 0.337755416 0.2960172135 2.755064885e-39
-5.562505116 5.212166743 -0.6784800506 0.7803742826 -0.3007171748 0.5482564726 6.428484731e-40
-1.36926669 2.46639899 -2.174782647 -0.1304174903 -0.6248558076 0.769770419 9.183549616e-41
-6.358014283 4.267615472 1.426802772 0.9931512748 -0.05358550994 -0.1038226296 3.673419846e-40
-6.190187146 5.640862622 1.316832791 0.7099451188 -0.6836806436 -0.1689932124 9.183549616e-40
-6.004497709 1.241591616 0.1293750345 0.9800746099 0.04785148253 0.192779653 9.183549616e-40
-5.188108336 4.366457049 -1.323897825 0.6079141904 -0.104051075 0.7871554554 1.836709923e-40
-4.48907141 8.586598814 -6.461100037 0.5304941357 0.6360889953 0.5603273705 1.744874427e-39
-6.308655361 2.342018872 -0.456615554 0.8438909957 0.2219504486 0.4884526443 2.755064885e-40
-6.617433726 2.364139112 2.635152572 0.9722745712 0.2336922678 -0.008371507941 9.183549616e-41
-6.421100014 1.829037984 0.638628335 0.8539521213 0.520090287 0.01648841787 4.591774808e-40
4.048327014 1.602219574 -2.661151033 -0.2885513613 -0.3672138452 0.8842466306 5.510129769e-40
2.241381488 3.060285238 -1.646267128 0.05630691943 -0.8099346921 0.5838110356 5.510129769e-40
0.7032236825 1.355765418 -3.005932138 0.04201947114 -0.4914446033 0.8698945717 9.183549616e-40
-5.983681794 2.737208231 -1.039890345 0.7234485342 0.07811441715 0.6859448638 9.183549616e-41
-3.872247558 7.083301564 -5.637382387 0.996497176 0.0651215087 -0.05246491462 6.612155723e-39
7.156986244 -0.7687335448 -0.8709924718 -0.9670469908 -0.07437429879 0.2434924667 1.836709923e-40
-3.891314261 7.486495595 -6.111007934 0.9523059192 0.2563376189 0.1655429293 3.765255342e-39
-3.903121656 6.736484363 -5.708850536 0.9290084537 -0.3421904441 -0.1408864538 5.050952289e-39
-3.834371756 7.273520885 -6.285732582 0.9944616039 -0.04200612921 0.09634107901 5.050952289e-39
-0.8264433794 -5.769392853 3.877844004 -0.621927443 -0.3004725324 0.723133814 1.836709923e-39
-5.157326157 8.030544283 -5.554801628 0.3477406513 0.7342856671 0.5830102902 8.173359158e-39
-6.034988577 3.421783754 -0.8705680429 0.7718130572 -0.1711461222 0.6123835477 2.755064885e-40
-5.79523955 5.089597731 -0.4063422424 0.7957641234 -0.2513405591 0.5509876435 6.428484731e-40
-3.494768486 5.85271751 -2.952095699 0.9972706794 -0.06203003156 0.04004331651 9.183549616e-41
-3.490452424 5.850961566 -3.152547394 0.9924182405 -0.1227978792 0.005168835999 1.836709923e-40
0.2468712877 2.615487595 -1.735219267 0.0596299902 -0.8430611865 0.5345017307 1.836709923e-40
-3.284305304 -6.003378969 3.549947671 -0.3790620718 -0.619629407 0.6872927642 9.183549616e-41
-5.93769317 0.831882539 -0.4546713524 0.9257001648 -0.1809232925 0.3321836347 1.010190458e-39
-5.975513205 1.64962719 1.543859809 -0.7843739572 -0.5617264902 0.2630985472 3.673419846e-40
-6.331453474 2.74184436 -0.4838108055 0.8720040739 0.03743198216 0.4880653049 6.428484731e-40
4.833937664 -0.8734703817 -3.46608384 -0.4801554765 -0.2095574604 0.8517842387 8.265194654e-40
-6.383652315 4.812586125 1.710702738 0.9734657448 -0.09004492973 -0.2103719427 3.673419846e-40
-6.269278943 4.265603181 2.619640324 0.9576097279 -0.2227354806 -0.1826814572 3.673419846e-40
-4.440618789 -3.170157331 0.8918504577 -0.5676449968 -0.797524767 0.2042875514 1.836709923e-40
-2.17537145 4.187239993 0.6448978027 0.9015297573 0.411821842 0.1328415117 0
-2.29434244 4.182233519 -0.5532997133 -0.8880481941 -0.2190774331 0.404197332 6.428484731e-40
-3.599865639 5.383678484 -1.542788995 -0.8993066748 -0.1984275869 0.3897101454 1.377532442e-39
-3.578377378 5.388938346 -1.451691551 -0.8448855068 -0.2971954894 0.44479582 1.377532442e-39
-2.589632055 5.556581119 0.8383321957 0.8404054782 0.4405894859 0.3155939434 9.183549616e-41
-3.483529875 -2.120145262 3.15373232 -0.2329831439 -0.513797971 0.8256697279 1.836709923e-40
-3.573055392 7.560284846 -6.996627907 0.9826246788 0.08702144471 0.1639390399 3.765255342e-39
-6.304657392 4.68027979 2.01844178 0.9719993872 -0.1179083657 -0.2032604451 3.673419846e-40
7.209835691 -0.3425869601 -0.3764575045 -0.9815355551 -0.1571484038 0.1090519754 4.591774808e-40
-2.369228542 4.953329081 0.4512203896 0.9440253962 0.1118880168 0.3103177776 1.19386145e-39
1.691161968 7.115783618 -2.898139181 0.4819211142 0.5832985121 0.6538462246 5.693800762e-39
-3.534557934 5.540734855 -2.352163582 0.9917693148 -0.1277401037 0.008723077394 4.591774808e-40
-3.535462411 5.537590321 -2.452204952 0.9874096083 -0.1581819599 0.0008561566227 4.591774808e-40
-4.139900816 -2.143397525 2.86964479 -0.4094074413 -0.5500661896 0.7278823628 1.836709923e-40
-4.962655545 -2.733075763 0.7336696815 0.695419665 0.7068367838 -0.1295115848 1.836709923e-40
-3.513957615 6.160078715 -4.255267313 0.9803047574 -0.1637853333 -0.1103492059 2.755064885e-39
8.587761756 -2.745060228 1.123599674 0.8218207508 0.409017572 0.3966299023 1.19386145e-39
8.626356705 -2.741052443 1.024026858 0.8523328071 0.4014161488 0.3352519373 1.285696946e-39
8.656197128 -2.736573107 0.9254346862 0.8786774078 0.3899414675 0.2754481167 7.346839693e-40
8.681881094 -2.734263776 0.824813148 -0.8958757253 -0.3874348243 -0.2174877967 9.183549616e-41
8.702937236 -2.737515336 0.7209356325 -0.9123155551 -0.3781308532 -0.1571540195 0
8.715642487 -2.73674531 0.6248152253 -0.9202438077 -0.3780246201 -0.1012359671 9.183549616e-41
8.723020389 -2.733655149 0.5207262204 -0.920958725 -0.3876664101 -0.0393672627 1.836709923e-40
8.723164641 -2.733370544 0.4204063831 -0.9246610166 -0.3805400245 0.01383091612 1.836709923e-40
8.719063626 -2.731012214 0.3187929508 -0.9177404576 -0.3901383894 0.07446132874 1.836709923e-40
8.709051849 -2.730957266 0.2174896387 -0.9117690555 -0.3919486264 0.1226925574 1.836709923e-40
8.695323278 -2.732359491 0.1164415269 -0.8976181261 -0.4005008193 0.1840673611 1.836709923e-40
8.675233579 -2.731981619 0.01389238817 -0.8756387731 -0.4140529794 0.2486299848 1.836709923e-40
8.645524787 -2.731892678 -0.08982572825 -0.8547865488 -0.417635552 0.30809171 1.836709923e-40
8.608721554 -2.73469226 -0.1920820006 -0.8232322605 -0.4251368932 0.3762276801 1.836709923e-40
8.5688191 -2.74389397 -0.2865369637 -0.7899472511 -0.4347674532 0.4323894103 1.836709923e-40
8.514881291 -2.750935326 -0.383584659 -0.7477472987 -0.4431838548 0.4944310347 1.836709923e-40
8.459966415 -2.765312637 -0.4706980108 -0.6999601107 -0.4535446004 0.5516820994 1.836709923e-40
-3.983596569 6.890236907 -5.824924716 0.8516784483 0.09831451981 0.5147602121 5.050952289e-39
-4.687531129 4.921251671 -1.875451488 0.6518759752 0.4998056781 0.5703086858 4.591774808e-40
-6.538931219 3.036857748 3.127847873 -0.9459548309 0.1911599901 0.2619681586 1.836709923e-40
-6.191405051 1.665184292 1.037967021 -0.8409761971 -0.506661941 0.189875521 3.673419846e-40
-1.110663056 1.317981199 -2.845580716 0.05097657877 -0.4021988672 0.91413208 1.836709923e-40
-6.402752494 2.072700366 1.743066632 0.8108261237 0.5748220036 -0.1101846694 3.673419846e-40
6.914841979 -2.892795544 -1.196709467 -0.7200965111 -0.1003136818 0.6865844304 2.3877229e-39
6.857970404 -2.898183161 -1.281854937 -0.7462246463 -0.05338031375 0.6635505401 2.3877229e-39
6.811058022 -2.901812701 -1.375716931 -0.7703528947 -0.00455059157 0.6376015289 2.3877229e-39
6.778010514 -2.901444755 -1.463019657 -0.7968756297 0.03285283387 0.6032494692 2.3877229e-39
6.733907704 -2.904746739 -1.555962611 -0.8049493421 0.0580655679 0.5904955093 2.3877229e-39
6.685934665 -2.906005446 -1.649784223 -0.8118897705 0.09173166939 0.5765590182 2.3877229e-39
6.637394132 -2.913303094 -1.760187608 -0.8245409128 0.1248681554 0.5518516348 2.3877229e-39
6.586185836 -2.917183286 -1.860077883 -0.8229166389 0.1478512426 0.548587473 2.3877229e-39
6.539964839 -2.92218516 -1.963549211 -0.8245161395 0.1656436334 0.5410502032 2.3877229e-39
6.479825369 -2.928619221 -2.064826186 -0.8116225077 0.161269933 0.5614810003 2.112216412e-39
6.400223924 -2.938689283 -2.171421566 -0.7956729043 0.1525790762 0.5861947243 1.19386145e-39
6.316774438 -2.946983783 -2.275532914 -0.7689128764 0.1425774895 0.6232532776 7.346839693e-40
6.2160331 -2.960043837 -2.387767782 -0.7428986586 0.1407538761 0.6544386369 8.265194654e-40
6.121101027 -2.966470478 -2.482416545 -0.7242746613 0.1391409333 0.6753265993 8.265194654e-40
6.035839888 -2.968031333 -2.56232461 -0.710993778 0.1363576287 0.6898510308 4.591774808e-40
5.937186898 -2.974132501 -2.652552266 -0.6967432484 0.1350394487 0.7044949915 7.346839693e-40
5.82995301 -2.982558744 -2.74555205 -0.6864917919 0.1332996683 0.7148148139 4.591774808e-40
5.600348013 -3.019634262 -2.93061387 -0.6725778914 0.1253946118 0.7293251479 1.836709923e-40
5.491608105 -3.028312526 -3.020688784 -0.6617434185 0.1173606221 0.7404877666 1.836709923e-40
5.406840366 -3.037291354 -3.092673236 -0.6544998058 0.1134719745 0.7474985721 1.836709923e-40
5.267194305 -3.046464752 -3.21299935 -0.6334629948 0.0992948982 0.7673754996 3.673419846e-40
-0.6335134887 2.854193907 -1.376363928 -0.2280987869 -0.8750682997 0.4268798593 9.183549616e-41
-3.558628503 8.038492383 -7.013966969 0.7333656629 0.1838320876 0.6545078823 3.765255342e-39
-0.9095567023 2.925089294 -1.467366942 -0.2691019275 -0.8470353049 0.4583834038 9.183549616e-41
-4.144705536 6.090798071 -5.466798716 0.873330063 0.2618338817 0.4107768488 2.479558396e-39
-5.984124359 1.241856773 0.03163165126 0.9716658557 0.04493517526 0.2320480444 9.183549616e-40
-6.522301792 3.170914439 2.92754006 0.9587212997 -0.2287258936 -0.1689317468 9.183549616e-41
-6.642802255 3.163095978 0.3306405836 0.9610049145 -0.1411630927 0.2377867439 0
-6.367325348 2.342892785 -0.3583597935 0.858269992 0.2208752359 0.4632350926 2.755064885e-40
-6.62883861 2.362168078 2.735035583 0.9738839345 0.2236514909 -0.03911639959 9.183549616e-41
-6.559719637 3.435021488 0.2303783293 0.9430515197 -0.2246550526 0.2453241501 0
-0.1542673747 -5.897549577 -3.885422957 -0.1263804511 0.4555585548 0.8811891878 1.19386145e-39
-6.64316849 2.483301265 0.2336221624 0.9539779118 0.1411438094 0.2645837653 9.183549616e-40
6.421145623 0.5560830735 -1.757623756 -0.7719311307 -0.3314988185 0.5424305142 3.673419846e-40
-3.917287184 6.50685561 -6.112803837 0.8011143014 0.231225966 0.5520420534 5.050952289e-39
-3.880078561 7.10768162 -5.843754706 0.9994640544 -0.01312151076 -0.02999049775 5.050952289e-39
-3.872739419 7.089081621 -5.735291441 0.9972604566 0.04514203179 -0.05859845234 6.612155723e-39
-3.591991627 5.698898231 -1.95237275 0.9764433908 0.1988478532 0.08377252453 1.377532442e-39
7.134569553 -0.06383250211 0.6216454084 -0.9700528782 -0.224288852 -0.09323049094 1.836709923e-40
-3.813219897 7.278979539 -6.38548714 0.9934057874 -0.05975106381 0.09785066161 5.050952289e-39
-3.81580416 6.690405306 -5.29405823 -0.9414353921 0.2368602603 0.2399929574 6.612155723e-39
-6.260470046 4.266074987 2.719126488 0.9454115443 -0.2467810631 -0.2128288484 3.673419846e-40
-1.800004782 5.10707237 -0.6545624627 0.6433029352 -0.7633049903 -0.05938708037 6.428484731e-40
-2.396715241 -2.849737493 2.798627774 -0.370344176 -0.5098548322 0.7764620026 1.010190458e-39
-4.506301133 5.194518598 -3.720331676 0.4492180388 0.8765463969 0.1728281447 2.755064885e-39
-4.656313026 -2.94857997 0.9983026424 -0.621274771 -0.7538866568 0.213711412 1.836709923e-40
0.895188731 2.647459774 -1.774289184 0.1419901915 -0.8132207948 0.5643675438 9.183549616e-41
0.2272433196 -5.93239041 4.417327229 -0.03626250879 -0.5928919023 0.804465178 1.010190458e-39
-0.6008836311 -5.914344363 4.049459318 -0.5472034886 -0.5398261103 0.639653119 1.102025954e-39
-2.492078256 4.956697593 0.855723839 0.9420270316 0.202430107 0.2675950739 9.183549616e-41
-3.55578594 6.793036288 -4.153679012 0.9410216079 0.3305392919 0.07226416779 0
6.785605651 0.9050256814 0.6219565053 -0.9001827011 -0.426496387 -0.08815858702 9.183549616e-41
2.517760873 1.505764931 -2.97820343 -0.06292032111 -0.380617413 0.9225895177 5.510129769e-40
7.201579231 -0.7651135664 -0.675989887 -0.9781725986 -0.07750949335 0.1927969032 1.836709923e-40
1.749464771 7.877417809 -3.700451732 0.7639886943 0.3422573686 0.5469745594 5.693800762e-39
-4.836123053 -2.54288704 1.663425681 -0.6397605917 -0.6910080236 0.3364733223 1.836709923e-40
-2.338766095 4.180613055 -0.6515721962 -0.8584816067 -0.1972232966 0.4734050087 6.428484731e-40
-2.393821826 4.17951956 -0.7523312814 -0.8144257414 -0.1907060268 0.5480346003 6.428484731e-40
1.698980204 2.159502428 -2.4710746 0.07322362614 -0.6558600445 0.7513227686 9.183549616e-41
-4.887704891 -2.083439628 2.306250459 -0.6285679417 -0.5730019204 0.5259003155 1.836709923e-40
-4.209428085 5.225379533 -3.853240933 0.003224781632 0.9741466248 0.2258936788 2.755064885e-39
-6.244448285 1.895277857 1.564513487 -0.7544110963 -0.6329367521 0.1739395457 3.673419846e-40
-2.319497792 -2.274523268 3.204129505 -0.1263425619 -0.4253815968 0.8961518031 1.010190458e-39
-3.584280197 6.944558966 -4.654533216 0.9485600378 0.3102996729 0.06283285522 4.408103816e-39
-2.313419839 4.333065195 0.941849798 0.8971392515 0.3841471296 0.2181103992 0
-3.721406853 8.113105907 -6.909236314 0.8661225579 0.4306602298 0.2536995885 3.765255342e-39
-0.5798541287 3.13799043 -0.1065138669 -0.2039284925 -0.9777182501 0.04980153933 2.755064885e-40
-3.562386559 6.790287707 -4.054103083 0.9323576991 0.3513564332 0.08519259251 0
-4.599152401 -2.665821995 1.81872254 -0.5704272176 -0.7276240369 0.3810197506 1.836709923e-40
-0.4325611261 -5.96944933 4.139333591 -0.4630159176 -0.6116791607 0.6414552708 5.510129769e-40
-3.916202137 -3.262728427 1.42699367 -0.3773409389 -0.8533416864 0.3597523901 1.836709923e-40
-5.027367937 6.462321456 -3.279910836 0.9811346855 0.1728343648 0.08661992452 1.561203435e-39
8.564497302 -2.607201654 1.023619665 0.7873242398 0.516541869 0.3366081387 1.19386145e-39
8.593726429 -2.598125039 0.9326081324 0.8070131585 0.5161519193 0.2869093205 1.285696946e-39
8.623236633 -2.597150416 0.825627157 0.8371707106 0.5016914279 0.2178323037 1.836709923e-40
8.648294754 -2.60077187 0.7221805735 -0.8514156286 -0.4996880688 -0.1593840055 9.183549616e-41
8.663073415 -2.603358061 0.6245335974 -0.8618207835 -0.4969273026 -0.1016277184 9.183549616e-41
8.669445313 -2.600494968 0.5209373619 -0.865975882 -0.4985121275 -0.03964127372 1.836709923e-40
8.670158928 -2.600150324 0.4202635913 -0.8653823702 -0.5009531005 0.01262316984 1.836709923e-40
8.663229785 -2.598046621 0.3193528496 -0.8620528231 -0.5013133263 0.07449751023 1.836709923e-40
8.652534689 -2.598112263 0.2183892421 -0.850262019 -0.5094468461 0.1323571308 1.836709923e-40
8.636605821 -2.601444405 0.1186637613 -0.8376480576 -0.5124379769 0.1890847733 1.836709923e-40
8.613189938 -2.602414751 0.01786730267 -0.8165851352 -0.5220312318 0.2463170926 1.836709923e-40
8.581221774 -2.602702239 -0.08454111334 -0.7879551415 -0.5293202399 0.3145580688 1.836709923e-40
8.546489054 -2.611217988 -0.1807554417 -0.756548005 -0.5338400056 0.3776903025 1.836709923e-40
8.496928618 -2.616403633 -0.2798823229 -0.7171563136 -0.5425831966 0.4373674618 1.836709923e-40
-5.796022741 0.142621691 -1.151863332 0.8754548787 -0.1159678272 0.4691803688 2.755064885e-40
-6.212482985 0.3050591311 0.05074162478 0.9743318571 -0.1217612437 0.1893452715 3.673419846e-40
2.610996314 1.487268795 -2.97425941 -0.07434254044 -0.3631601523 0.9287560985 5.510129769e-40
-4.729612519 5.519794433 -3.462941767 0.8956902404 0.41398758 0.1623369236 1.836709923e-40
-3.772161282 7.673671854 -6.613668657 0.9584700005 0.1990388992 0.2042517434 3.765255342e-39
-5.732872305 1.369092543 1.651697216 -0.8627084479 -0.3217904789 0.3901089869 3.673419846e-40
-5.793136716 1.233090157 -0.5610821751 0.9029224848 -0.07624894224 0.4229859162 9.183549616e-41
6.983301936 -2.749774289 -1.095154501 -0.7495070822 -0.1336025759 0.6483744948 2.3877229e-39
6.929305813 -2.751284677 -1.187394104 -0.7671897433 -0.07786625137 0.6366763264 2.3877229e-39
6.887629254 -2.754180748 -1.2765162 -0.7943632108 -0.03475939277 0.6064477503 2.3877229e-39
6.844891151 -2.755541992 -1.366174543 -0.808734736 -0.007074618679 0.5881310029 2.3877229e-39
6.804401423 -2.759492766 -1.461933952 -0.8206581035 0.02592544124 0.5708311035 2.3877229e-39
6.764742595 -2.760728753 -1.553243998 -0.8296129199 0.04953611042 0.5561371925 2.3877229e-39
6.723108123 -2.762819204 -1.651481686 -0.8380620987 0.08032677102 0.5396290657 2.3877229e-39
6.673570355 -2.769390292 -1.760187138 -0.8395460941 0.1056515007 0.5329166129 2.3877229e-39
6.628259502 -2.774380704 -1.863362491 -0.8397677152 0.1257561171 0.5281813927 2.3877229e-39
6.578450356 -2.779249832 -1.963641075 -0.8285171989 0.1275037915 0.5452541007 2.112216412e-39
6.515083081 -2.781880618 -2.054449869 -0.8147522847 0.1182336131 0.5676262215 4.591774808e-40
6.432770911 -2.791006756 -2.158285448 -0.7969748709 0.1087103391 0.59414907 7.346839693e-40
6.345945001 -2.799131438 -2.258516686 -0.7768078156 0.1006857725 0.621636544 5.510129769e-40
6.246549035 -2.811003623 -2.370696916 -0.7511948535 0.09935873296 0.6525596787 5.510129769e-40
6.147748825 -2.820213448 -2.472765819 -0.7286733512 0.103246046 0.6770342688 8.265194654e-40
6.056817186 -2.825074344 -2.558836096 -0.7158980143 0.1043604257 0.6903614522 7.346839693e-40
5.952739327 -2.833741648 -2.655462869 -0.6997758672 0.1111177424 0.7056674734 1.836709923e-40
5.840634773 -2.84448856 -2.755999939 -0.6873574477 0.1142846679 0.7172717434 4.591774808e-40
5.61822964 -2.880047398 -2.935245313 -0.6695899011 0.1141266108 0.733910404 0
5.530610113 -2.88242406 -3.006717624 -0.6597605399 0.1107649831 0.7432678848 0
5.435790616 -2.885975237 -3.08625558 -0.6493352937 0.105865814 0.7530976734 9.183549616e-41
5.334853541 -2.89165699 -3.172852788 -0.6361743907 0.09792850502 0.7653052676 2.755064885e-40
-2.96368141 3.063974546 -1.597762482 -0.1357495882 -0.4013795256 0.9057960729 1.836709923e-40
4.649070162 0.7198164618 -2.925981206 -0.2605594891 -0.4486300956 0.8548916832 9.183549616e-41
-1.48200811 3.052965663 -1.593300327 -0.1641228796 -0.8453970896 0.508298575 1.836709923e-40
-0.3536195154 2.167920272 -2.265345327 -0.02125972655 -0.6974542725 0.7163138711 0
5.245828937 2.533270274 -1.085064673 -0.5542101197 -0.7459237352 0.3693899355 0
-5.965129639 1.368561642 -0.07679143482 0.9429167301 0.1570146119 0.2936910821 5.510129769e-40
-6.419869194 2.342425294 -0.2622000113 0.8749958978 0.2158404752 0.4333532833 4.591774808e-40
-6.635606406 2.361446001 2.834978675 0.9716940452 0.2235344418 -0.07643975281 9.183549616e-41
-6.472692539 2.34501164 -0.1604043664 0.8913815144 0.2077054009 0.4028615918 0
-6.519328247 2.346462272 -0.06181391009 0.9064677627 0.2067849202 0.3681795647 1.010190458e-39
-6.538106215 1.963531092 0.6391956691 0.8674880093 0.4951990678 0.04735437572 4.591774808e-40
-6.672288738 2.485308786 0.335207359 0.961892797 0.1533129897 0.2264009148 1.102025954e-39
6.560839116 0.8874003195 1.718286419 0.8453018431 0.3837953748 0.3717067452 0
-6.225244383 2.605008593 -0.6688187879 0.8280591283 0.1067287199 0.5503880998 2.755064885e-40
-2.223856093 6.747485419 -1.487022471 0.6989692828 -0.2906428156 0.6534284164 3.673419846e-40
-4.746287575 5.516826668 -3.364532103 0.8768542388 0.4484119951 0.173358953 1.836709923e-40
-3.556244757 5.699856718 -2.151377473 0.9914385225 0.09516267809 0.08940761047 1.377532442e-39
-3.573676956 5.69774303 -2.053479753 0.9835612867 0.1550776776 0.09251004934 1.377532442e-39
7.051430376 0.3518150609 0.1214930346 -0.9486704994 -0.3159508161 -0.01411968241 9.183549616e-41
-3.763403557 6.661860656 -5.110376616 -0.9682536366 0.1410383474 0.2063809095 6.612155723e-39
-4.621666734 -3.010841638 0.8886577839 -0.6192472452 -0.7613886919 0.1918856667 1.836709923e-40
-3.60198323 5.078725307 -1.634884296 -0.8460798947 0.03651662228 0.5318038625 4.591774808e-40
-1.833719257 5.112593498 -0.5531025821 0.706200907 -0.7036941978 0.07806891122 6.428484731e-40
-2.413104391 6.746715457 -1.285226479 0.735679158 -0.4435638534 0.5118860073 3.673419846e-40
-4.579775967 -2.99665194 1.05797697 -0.6011250794 -0.7637654584 0.2351828297 1.836709923e-40
-2.250739565 4.490839944 0.1437335761 0.9860852941 0.1539019933 0.06284878041 5.510129769e-40
-2.248010816 4.493644473 0.04453920264 0.9930359741 0.1133451482 0.03213147319 1.836709923e-40
-4.968198396 7.018575019 -4.474923253 0.9384827222 0.2496210347 0.2386200308 3.489748854e-39
-5.641081216 4.805894914 -0.6989196889 0.7947586155 -0.2172532592 0.5667095945 6.428484731e-40
-3.51376914 6.007992481 -2.754812415 0.9863437286 0.1134443894 0.1194002493 1.836709923e-40
-6.728178772 2.352460241 1.035330583 0.9537116194 0.2959120202 -0.05357446501 4.591774808e-40
-2.799827597 4.940485733 1.929650919 0.8812355629 0.1313015724 0.4540746411 9.183549616e-40
6.956419599 -0.3564777593 1.725445912 0.9149295118 0.1769380643 0.3627628837 9.183549616e-41
-6.279528283 2.740164766 -0.5818169037 0.8551248701 0.04384696475 0.5165645171 2.755064885e-40
-2.641615627 4.7903913 1.541021832 0.9207666541 0.1982280467 0.3359976342 7.346839693e-40
-2.546412214 4.342074942 1.656547725 0.8522985888 0.3587943156 0.3805965773 1.836709923e-40
-2.155572105 4.184660634 0.3446636916 0.9269330867 0.3730649622 0.0402192331 1.19386145e-39
-2.456998434 4.175421365 -0.8472944097 -0.766412376 -0.185514062 0.6149769124 6.428484731e-40
-2.573282109 5.109962036 1.152328223 0.9446784651 0.218464994 0.2446541312 9.183549616e-40
-2.230132924 4.335537039 0.543114961 0.9291806575 0.3448044876 0.1331659529 0
-2.222466995 4.334312467 0.4427175108 0.943996519 0.3102821699 0.1122298856 9.183549616e-41
-3.543245996 6.006381917 -2.555731364 0.9719892571 0.1757164391 0.1560788812 1.836709923e-40
-4.663820741 1.935845397 4.217587226 -0.03382889619 -0.5999432743 0.7993270128 9.183549616e-41
-4.560112765 1.94312424 4.235600738 0.04682426239 -0.6023211439 0.7968793685 9.183549616e-41
-3.381423163 -3.459102905 1.354466666 -0.3097312067 -0.8851202195 0.3473165365 2.755064885e-40
-3.641466472 8.155366448 -6.989259706 0.8629291113 0.3976753004 0.3117815009 3.765255342e-39
7.219525644 -0.7636373546 -0.5768417485 -0.983142579 -0.07875654714 0.1650093196 1.836709923e-40
1.657549029 7.837938271 -3.562685521 0.7519605934 0.3544855785 0.5557834475 5.693800762e-39
-3.681124334 -5.84436877 3.308986271 -0.7485472725 -0.2858306224 0.5983124904 9.183549616e-40
0.9733433912 9.11960615 -3.028701221 0.7990312166 0.03165450594 0.6004557495 0
-0.6774177508 -5.878858208 3.99798887 -0.5918266267 -0.466884888 0.6570842756 1.469367939e-39
-4.323277121 -2.838851002 1.847217998 -0.4892335542 -0.7716297483 0.4064948474 1.836709923e-40
-3.876833654 6.890111958 -6.138191168 0.9457487401 -0.3215713553 -0.04638085939 5.050952289e-39
7.020036652 -0.07334477951 -0.9777606165 -0.9258712389 -0.2386082482 0.2929651051 1.836709923e-40
6.985008999 -0.07530589126 -1.07920141 -0.9141504495 -0.2455588494 0.3225365207 1.836709923e-40
8.566376896 -2.465980266 0.7225925058 -0.7619929689 -0.6295899645 -0.1516020845 9.183549616e-41
8.584289032 -2.469854352 0.619698174 -0.7803408395 -0.6189189797 -0.08948447217 9.183549616e-41
8.589044369 -2.464233841 0.5078563576 -0.7794615341 -0.6254878996 -0.0347074106 1.836709923e-40
8.59284526 -2.470842092 0.420708038 -0.7853831459 -0.618671714 0.0204603114 1.836709923e-40
-6.390111036 1.83062315 0.9334336062 0.8225190114 0.5573363228 -0.1133079834 4.591774808e-40
6.794080665 0.4831133961 1.525606862 0.8947512213 0.33035364 0.3004774942 1.836709923e-40
6.870980856 0.4884090106 1.224368478 -0.9156993143 -0.3391864637 -0.2155163769 1.836709923e-40
6.891491278 0.4877902934 1.123249396 -0.9192649971 -0.3430642971 -0.1930252656 9.183549616e-41
8.487021914 -2.477349866 -0.08058496275 -0.6898007378 -0.6522158277 0.3143079005 1.836709923e-40
8.444762195 -2.485531467 -0.1774877269 -0.6394711975 -0.6654296805 0.3850713283 1.836709923e-40
6.818527509 0.7528046967 -0.672358679 -0.8836540038 -0.4110618911 0.2240172386 1.836709923e-40
6.860957016 0.7573350234 -0.4752286361 -0.8972500637 -0.4112954797 0.1605563811 1.836709923e-40
-0.7958543883 2.746038528 -1.667764004 -0.2317248122 -0.8075919059 0.5423088834 1.836709923e-40
-5.242394877 1.333191248 -1.33901311 0.6972189028 -0.2145137805 0.6840099703 4.591774808e-40
-5.616544617 1.356506991 1.860478893 -0.8390499671 -0.3512602165 0.415465297 7.346839693e-40
-5.672668501 1.36658463 1.751978376 -0.8546681029 -0.3318395087 0.399280571 3.673419846e-40
-5.946559276 1.112694984 1.149200888 -0.955247809 0.007238769422 0.2957181489 4.591774808e-40
7.039924383 -2.597675985 -0.9947843265 -0.7621888278 -0.17651024 0.62282608 6.428484731e-40
6.995155419 -2.604009858 -1.089103239 -0.7955315143 -0.1065210212 0.5964753824 6.428484731e-40
6.947513623 -2.60961678 -1.181014905 -0.8088827686 -0.06727530574 0.5841084659 6.428484731e-40
6.907947123 -2.612451903 -1.271855147 -0.8239245655 -0.03422340495 0.5656651561 5.510129769e-40
6.865923651 -2.615167443 -1.359724375 -0.8292660243 -0.008747378595 0.5587855979 5.510129769e-40
6.82724998 -2.616299596 -1.45234334 -0.839325867 0.02078114474 0.5432312888 5.510129769e-40
6.788701275 -2.616972987 -1.545945894 -0.8475639024 0.03868422816 0.5292815525 5.510129769e-40
6.747945738 -2.62084077 -1.652339765 -0.8524138203 0.07068228176 0.518068233 5.510129769e-40
6.7049512 -2.627789839 -1.764166821 -0.8534687415 0.09405998809 0.5125854329 5.510129769e-40
6.657702257 -2.632717272 -1.866184936 -0.843584256 0.0998437927 0.5276332249 2.112216412e-39
6.598241822 -2.636177219 -1.959966243 -0.8283006703 0.09273368648 0.5525562985 1.377532442e-39
6.528477253 -2.641229109 -2.055064711 -0.8143239929 0.08731508641 0.5738052895 4.591774808e-40
6.449110802 -2.647960533 -2.151144922 -0.7945478625 0.07808353386 0.6021599919 3.673419846e-40
6.355418146 -2.657751976 -2.255911386 -0.7745154264 0.07013918114 0.6286543959 4.591774808e-40
6.261139482 -2.667052153 -2.361258827 -0.7563814339 0.07002495471 0.6503719183 6.428484731e-40
6.163020095 -2.676057996 -2.463879473 -0.7355598367 0.07558783753 0.6732296826 8.265194654e-40
6.060964244 -2.684871794 -2.562880366 -0.72080754 0.08359339112 0.6880760389 4.591774808e-40
5.952154753 -2.695295907 -2.668100187 -0.7036575206 0.09275426444 0.7044591828 1.836709923e-40
5.827988407 -2.709508093 -2.784665094 -0.6889763029 0.0992330502 0.7179585335 9.183549616e-41
5.675890121 -2.729508317 -2.912914537 -0.6740614519 0.1006155158 0.7317907331 9.183549616e-41
5.588345136 -2.731319291 -2.986643989 -0.6621459847 0.1009280432 0.7425471198 9.183549616e-41
5.485565229 -2.736973253 -3.071322141 -0.6508277308 0.09682614402 0.7530258712 1.836709923e-40
5.385124172 -2.742036858 -3.157277756 -0.6367639604 0.09333321042 0.7653891628 1.836709923e-40
0.08352541815 2.796880927 -1.322301084 0.03831152751 -0.9183935835 0.3938089038 0
2.046613461 0.5324622244 -3.357491386 -0.05828472334 -0.5944916555 0.8019866349 5.510129769e-40
4.974488222 2.722084849 -1.086971355 -0.5065909904 -0.775115359 0.377573501 0
-1.583680414 3.061964465 -1.60101456 -0.1368940179 -0.8475256409 0.5127965638 9.183549616e-41
-6.313485227 3.998204 2.527712755 0.9705323301 -0.2126532622 -0.1133383704 3.673419846e-40
-5.933880615 1.367184069 -0.1808371007 0.9353633635 0.1231508487 0.3315557973 5.510129769e-40
4.830799884 2.560398593 -1.519103132 -0.4647197536 -0.7289504018 0.5026597878 0
-6.623896991 2.364945049 3.033956677 0.9605019058 0.2079447906 -0.1849190443 9.183549616e-41
-6.182577112 2.339443807 -0.6535850632 0.799096576 0.2412694929 0.5506665907 3.673419846e-40
-4.895674789 6.853043506 -4.397950289 0.9438836066 0.2331647612 0.2339186426 1.561203435e-39
-6.696710804 3.305396631 0.8293105373 0.9728947885 -0.2195161344 0.07272136705 2.755064885e-40
-6.69533331 2.484482507 0.4326922069 0.9682527359 0.1614723132 0.1908227752 1.102025954e-39
1.771731258 7.506336199 -3.39606338 0.5419125944 0.5222137121 0.6585010091 5.693800762e-39
-6.172669705 2.605577017 -0.7569726152 0.8068454228 0.1114231841 0.5801597519 9.183549616e-41
-6.11539722 2.607139686 -0.8458922865 0.783666331 0.1187793151 0.6097200636 9.183549616e-41
-3.953199976 6.618446291 -5.906524715 0.8752402783 -0.4621183783 -0.1428322778 5.050952289e-39
-3.748718004 6.922029813 -5.144701974 0.9897842748 0.1339499412 -0.04883137015 6.612155723e-39
-3.521499291 5.697696781 -2.551651777 0.9974095024 -0.0544675602 0.04698477938 1.377532442e-39
-1.263933277 5.433547049 -0.7580294735 0.5618624294 -0.7827452216 0.2676201198 6.428484731e-40
-3.787915204 6.677090288 -5.201299777 -0.9529770109 0.1988604849 0.2286685905 6.612155723e-39
7.111693083 -0.4931052596 -0.9678970999 -0.9540560961 -0.1318310464 0.2690679111 1.836709923e-40
-5.070651935 1.611357128 3.673316306 -0.1487983998 -0.8315918523 0.5350831967 9.183549616e-41
-6.581635175 3.172433492 2.031662055 0.9755213991 -0.1749670027 -0.1332086628 9.183549616e-41
-3.597784389 6.950525994 -4.453305285 0.9246531443 0.3728382458 0.07751261373 2.755064885e-40
-3.512763084 6.633059584 -4.453703011 0.9919444613 0.1246998353 -0.02227412762 5.142787785e-39
-4.293001458 1.596850493 3.325509188 0.2312815245 -0.7485774119 0.6214022166 9.183549616e-41
-2.241652864 4.493770755 -0.0550911293 0.997046699 0.0746099757 -0.01819976654 6.428484731e-40
-3.653614507 6.478321986 -2.752775782 0.8522492042 0.4539377581 0.2600227023 5.510129769e-40
-0.4111177242 -5.670963256 -3.942087406 0.002085952188 0.109499213 0.9939846936 1.285696946e-39
-6.462605638 1.949714221 2.837399576 0.814331482 0.5776076348 -0.05686525774 9.183549616e-41
-3.491741325 6.010273038 -2.952591077 0.9949606714 0.05846237625 0.08145804395 1.836709923e-40
-3.589215506 6.94871453 -4.854002583 0.967462462 0.2494881099 0.04209593315 5.142787785e-39
-2.164285186 4.186157656 0.5445102584 0.9080937346 0.4055550017 0.1043595218 0
-5.246605519 1.468760126 3.216523136 -0.2378639449 -0.8784986543 0.4143197535 7.346839693e-40
-3.696861986 6.348055851 -4.727226382 -0.9423646429 0.2526279421 0.2193809534 1.836709923e-40
-6.536852354 2.750537184 -0.06128239962 0.9290192549 0.00949547585 0.3699095295 0
-1.224625428 5.408005749 -1.062596559 0.4405282998 -0.8911567876 -0.1085098934 9.183549616e-41
-3.580089895 5.533910035 -3.153739583 0.9107967122 -0.3969341412 -0.1135457469 1.836709923e-40
-3.72865792 6.052144782 -4.524455828 -0.8463875014 0.4577854242 0.2721409614 2.755064885e-39
-3.865869268 -1.696699966 3.255832029 -0.3133122846 -0.3983349038 0.8620700185 1.836709923e-40
-2.542034942 4.957681433 1.057091266 0.9463720461 0.2032454973 0.2511398379 9.183549616e-41
-2.265505371 4.336943575 0.7438378669 0.9122086845 0.3701523883 0.175677333 0
-2.289937431 4.337738514 0.8445755555 0.9041966358 0.3776933559 0.1994396468 0
-5.318876011 2.040531109 4.007428026 -0.3086766226 -0.5243985402 0.7935520863 9.183549616e-41
-1.990887328 2.985170132 -1.718009219 -0.03011390046 -0.7773462417 0.6283517912 2.755064885e-40
-5.580782526 1.525653866 3.265931448 -0.2980071555 -0.8937764221 0.3351946338 9.183549616e-41
1.741300474 7.248746565 -3.05924548 0.3808791952 0.6291436795 0.6775760247 5.693800762e-39
6.815393943 -0.2360361007 -1.565393078 -0.8587388305 -0.2408749571 0.4522685883 1.836709923e-40
-2.402452031 4.954913076 0.5540633057 0.9404879433 0.1481397329 0.3058382711 9.183549616e-41
1.671255568 8.299807296 -3.8536725 0.7343170057 0.2845624374 0.6162813922 1.285696946e-39
-6.287659907 4.27334576 1.933020046 0.9880263673 -0.09171627611 -0.1240645893 3.673419846e-40
-5.377998622 -2.075346046 1.319489319 -0.7724766079 -0.5850510658 0.2469719429 1.836709923e-40
-3.82907116 7.017252628 -6.453203863 0.9705341188 -0.2409637299 7.198590638e-05 5.050952289e-39
1.520952569 8.135659806 -3.581899571 0.7591344669 0.3227182791 0.565303258 1.285696946e-39
-3.603860485 6.632493294 -3.254331709 0.8804113163 0.4322790756 0.1949633684 0
-6.094833914 4.536885726 0.009486440116 0.8909680323 -0.174938838 0.4190135658 9.183549616e-40
-4.857060096 6.285277707 -3.603245368 0.9536812 0.2307651735 0.1929756553 9.183549616e-41
-3.543070357 6.792114936 -4.453742778 0.9719501349 0.2341982585 0.02154323363 5.142787785e-39
-2.133028375 4.04050778 -0.05657527001 -0.9077860653 -0.3992151347 0.1286535498 5.510129769e-40
-2.719081255 4.947235288 1.748931559 0.9090314607 0.1517955464 0.3880978169 9.183549616e-40
6.759343626 0.4818522244 1.626950725 0.8840226032 0.3291430441 0.331916998 1.836709923e-40
-6.032191271 5.080458335 -0.06164965094 0.8325426076 -0.1932839544 0.519147493 9.183549616e-40
6.403043613 0.7344869005 -1.673557272 -0.779380319 -0.3653503089 0.5090043911 3.673419846e-40
6.507087867 0.7412448512 -1.475942664 -0.8117281135 -0.3788239474 0.4445108397 3.673419846e-40
6.685875124 0.7456729787 -1.071138678 -0.8555126753 -0.4009224617 0.3276572022 3.673419846e-40
6.757686725 0.7501511417 -0.8712247526 -0.8689483985 -0.4091257437 0.2784686817 3.673419846e-40
-6.275689635 5.621963138 0.7198181779 0.7760804318 -0.6162506696 0.1339189142 9.183549616e-40
-6.175630811 0.7080683485 0.6418521582 0.9809916053 -0.1887965541 -0.04484787059 1.010190458e-39
-6.003279178 1.1139432 0.9456053747 0.980694374 -0.001945657503 -0.1955371044 4.591774808e-40
-5.975082149 1.372647122 1.050434131 -0.9313973017 -0.2710950616 0.2429126054 4.591774808e-40
-6.048329931 1.11404937 0.6417646134 0.9985676407 0.003335449357 -0.05339982807 4.591774808e-40
-6.040462582 1.115262218 0.744008322 0.9941429683 -0.01161638452 -0.1074468155 4.591774808e-40
-6.263433025 4.543533086 2.321198586 0.9651294933 -0.171738925 -0.1975621494 3.673419846e-40
7.051171504 -2.457717994 -0.9839569123 -0.8068681117 -0.1455052041 0.5725312969 6.428484731e-40
7.00992498 -2.463307944 -1.080201191 -0.8252245193 -0.09298564419 0.557097983 5.510129769e-40
6.968502356 -2.467019168 -1.169406243 -0.8318509054 -0.05412718824 0.5523534363 5.510129769e-40
6.930654647 -2.469353335 -1.262788927 -0.846176618 -0.02767075905 0.5321836715 5.510129769e-40
6.886788501 -2.47294631 -1.357813989 -0.8515383808 -0.001476300863 0.5242901931 5.510129769e-40
6.850057638 -2.473440825 -1.452133235 -0.8609070956 0.0302543645 0.5078618377 5.510129769e-40
6.810780751 -2.475695792 -1.552413925 -0.8660907298 0.05342781631 0.4970234563 5.510129769e-40
6.772862328 -2.480205972 -1.660282185 -0.8686956771 0.0757652306 0.489517569 1.836709923e-39
6.728653308 -2.485353984 -1.763807908 -0.8598557792 0.07903487787 0.5043823222 1.285696946e-39
6.669310655 -2.490999172 -1.86551764 -0.8423538506 0.07470569428 0.5337218841 1.377532442e-39
6.606062706 -2.494606727 -1.956715964 -0.827472057 0.07072259089 0.5570352861 4.591774808e-40
6.530856582 -2.501594887 -2.056263803 -0.8095859122 0.0626102332 0.5836528159 4.591774808e-40
6.438691715 -2.510331804 -2.162647972 -0.7883926336 0.05526432838 0.612685 9.183549616e-41
6.344156426 -2.520039382 -2.267755546 -0.7717777078 0.05319254409 0.6336637302 0
6.248497915 -2.528247079 -2.372797433 -0.7552175258 0.05366148529 0.6532740112 1.836709923e-40
6.156492586 -2.535810492 -2.469732948 -0.7401659362 0.05931353269 0.6698031739 4.591774808e-40
6.063435651 -2.544111961 -2.565558326 -0.7264541688 0.06790737694 0.68385154 3.673419846e-40
5.964094196 -2.553953318 -2.667246889 -0.7125632848 0.07662612723 0.6974109275 0
5.838704955 -2.569987184 -2.794996554 -0.6926627351 0.08754977451 0.7159283291 0
5.72567507 -2.580455385 -2.897146075 -0.6772858083 0.09243511328 0.7298901861 0
5.639256772 -2.582849741 -2.972733933 -0.6670574527 0.09167596739 0.7393442174 0
5.537966557 -2.589410677 -3.058418964 -0.6520514773 0.0911660612 0.7526736479 1.836709923e-40
5.437328206 -2.594302063 -3.144173739 -0.6372513673 0.08648767347 0.7657875536 1.836709923e-40
4.017331334 2.633593989 -1.994615034 -0.2838902232 -0.7189527341 0.6344393645 0
-0.2391967455 2.791470105 -1.314001429 -0.08187966685 -0.912293029 0.4012694224 3.673419846e-40
-0.3412921632 2.800858365 -1.32175365 -0.1241154872 -0.904706316 0.4075559195 3.673419846e-40
-5.940242983 4.814572693 -0.2093829588 0.8479794504 -0.1651791012 0.5036335138 6.428484731e-40
-6.651012304 3.439213705 0.8296902555 0.9635231499 -0.2588783232 0.06786128042 2.755064885e-40
-5.96045079 3.418560687 -0.9672135733 0.7374545233 -0.1695878525 0.6537589665 2.755064885e-40
-5.900394699 1.369870921 -0.2748699207 0.9251429765 0.1091242636 0.3635964357 3.673419846e-40
-5.818490025 2.177334423 -0.976787263 0.6642989623 0.2922621992 0.6879605335 9.183549616e-41
-6.634127951 2.364748508 2.934255891 0.9673783436 0.2121871821 -0.1384042636 9.183549616e-41
-6.248637532 2.341446517 -0.5536136198 0.8243907785 0.2282861404 0.5179433198 2.755064885e-40
-6.731760763 2.487881454 0.6343360358 0.9767166198 0.1774601371 0.1205510031 2.755064885e-40
-6.71569699 2.487684163 0.5352093308 0.973569164 0.1694644576 0.1531172114 2.755064885e-40
-3.56711313 5.854293769 -2.2526037 0.9736548388 0.1708949632 0.1509674347 1.377532442e-39
-6.332559648 2.606167487 -0.4776254498 0.8680760603 0.0907559966 0.4880648549 2.755064885e-40
-6.282094481 2.605088543 -0.5693423636 0.85155457 0.09361077908 0.5158409021 2.755064885e-40
-3.512994841 5.848010668 -3.654234938 0.9556062208 -0.2787416342 -0.09549791673 1.836709923e-40
-3.872842463 7.127411911 -5.956078032 0.9972266227 -0.07399479389 0.007989583616 5.050952289e-39
-4.990532122 5.735853469 -2.189031531 0.9898173587 0.1330743332 0.05052542104 1.285696946e-39
-4.236936629 -2.00934651 2.910362114 -0.4332487048 -0.5126342727 0.7412837933 1.836709923e-40
-3.555147894 6.636181947 -3.553209204 0.9282456463 0.3498907973 0.1262396534 9.183549616e-41
-3.629377881 6.631799869 -3.139325585 0.8638330572 0.455930876 0.2142883236 0
1.542396521 6.921161429 -2.531639847 0.3750568748 0.6400016659 0.6706192723 5.693800762e-39
-0.06880957769 -0.3632503739 -3.836211944 0.578619859 -0.5723133959 0.5810821247 6.428484731e-40
-0.5503724487 5.910199444 -0.9634880573 0.5222731979 -0.7006046365 0.486193223 1.561203435e-39
-5.18674445 -2.185205537 1.63102968 -0.7223185165 -0.6157372853 0.3148389369 1.836709923e-40
-2.241686182 4.493254218 -0.1571269587 -0.9939099665 -0.03429798039 0.1047216647 6.428484731e-40
-2.202727034 4.770043376 -0.4726641794 -0.9183198019 0.3051636267 0.2521188261 6.428484731e-40
-0.4364311093 6.65131614 -2.114561102 -0.01383531088 0.4810084787 0.8766067691 6.70399122e-39
-6.600531439 2.225583122 2.936325356 0.9352674372 0.3284588473 -0.1318696572 9.183549616e-41
-1.168134039 2.542418214 -2.054830353 -0.1818302595 -0.6823688788 0.708032817 9.183549616e-41
-6.268221863 1.67993492 0.7374416229 0.8694262428 0.4896407343 -0.06595422457 4.591774808e-40
-4.821267074 1.307479433 2.902541602 -0.2809271735 -0.6962085999 0.6605857315 7.346839693e-40
-4.320575042 -2.108204393 2.792893907 -0.4601178359 -0.5466703951 0.6996020699 1.836709923e-40
6.936241172 0.4887965087 0.8219080495 -0.9284941933 -0.3482375614 -0.128953999 9.183549616e-41
-2.724190353 5.105754605 1.758333754 0.9112643152 0.178243575 0.3712500178 9.183549616e-40
-1.220594375 5.406074472 -0.9572571223 0.4911916699 -0.8709447542 0.01363739846 9.183549616e-41
1.718574012 7.214516472 -3.006669125 0.4219978885 0.6129456918 0.6679935336 5.693800762e-39
-4.724890147 6.1480005 -3.901826281 0.9452656204 0.2315944281 0.2298628457 2.755064885e-40
-3.043251256 4.166007709 -1.377022842 -0.4874588324 -0.2270885592 0.8430982582 3.673419846e-40
-2.216622882 4.337621323 0.04584801447 0.9788719617 0.2024139795 -0.02895277975 5.510129769e-40
-3.59280003 6.007905963 -4.352456958 -0.9338366387 0.3138770794 0.1715526487 2.755064885e-39
-2.341167454 4.332341434 1.041771412 0.8913270838 0.3864550348 0.2370412109 0
