# .PCD v0.7 - Point Cloud Data file format
VERSION 0.7
FIELDS x y z normal_x normal_y normal_z rgb
SIZE 4 4 4 4 4 4 4
TYPE F F F F F F F
COUNT 1 1 1 1 1 1 1
WIDTH 515
HEIGHT 1
VIEWPOINT 0 0 0 1 0 0 0
POINTS 515
DATA ascii
-0.8006321535 -2.707442224 -2.587229262 0.5855261545 0.3971883777 0.7066827541 3.673419846e-40
-0.8993626611 -2.714963705 -2.512451348 0.454454722 0.4179741553 0.7866184025 1.836709923e-40
-0.9980477405 -2.718718183 -2.476113326 0.331154366 0.4267177294 0.8415751691 1.836709923e-40
-1.098776355 -2.725852924 -2.459088035 0.2222785633 0.4307957161 0.8746469524 1.836709923e-40
-1.197909079 -2.721317959 -2.463902872 0.1413480765 0.4278719809 0.8927184826 2.755064885e-40
-1.296740259 -2.724528306 -2.470093126 0.0886446255 0.4224175793 0.9020562727 3.673419846e-40
-1.396041079 -2.711376342 -2.486573322 -0.07238990941 -0.4155996058 -0.9066623786 0
-1.494720323 -2.709368172 -2.495652104 -0.07745196791 -0.4084541869 -0.9094868717 3.673419846e-40
-1.593054644 -2.705110085 -2.499715096 -0.1036868059 -0.3990964847 -0.9110274651 3.673419846e-40
-1.691987861 -2.707573522 -2.488569176 0.1436015033 0.389490411 0.9097669086 2.755064885e-40
-2.022171238 -2.777551549 -2.350791151 0.260180969 0.3694520793 0.892082409 1.836709923e-40
-1.916374203 -2.54202568 -2.48412142 -0.2193317052 -0.37358492 -0.9012923558 0
-1.987011154 -2.713233712 -2.390266627 0.2451513171 0.3713038023 0.8955636874 1.836709923e-40
-2.089109096 -2.720296745 -2.346208843 0.2581370675 0.3811880869 0.8877279408 1.836709923e-40
-2.116065156 -2.883600693 -2.280463215 0.288527043 0.3686940633 0.8836384063 1.836709923e-40
-2.294401175 -2.738577744 -2.264202303 0.2487391596 0.4311368739 0.867323369 2.755064885e-40
-2.223875221 -2.588736542 -2.334265485 -0.2190948742 -0.4280899265 -0.8767761692 1.19386145e-39
-2.495446236 -2.747118649 -2.204207065 0.2098358841 0.5183144335 0.8290470733 1.19386145e-39
-2.591964749 -2.738150306 -2.190741868 0.1833128785 0.5648324142 0.8045873057 1.19386145e-39
-2.690692475 -2.731071923 -2.181891584 -0.1591825272 -0.6076711194 -0.7780724476 1.19386145e-39
-2.791187844 -2.731289216 -2.169584617 -0.1434305058 -0.6480997115 -0.7479267705 1.19386145e-39
-3.10429023 -2.60750613 -2.306269624 0.0848438241 0.6688933623 0.7385006401 1.285696946e-39
-2.995125254 -2.75832132 -2.11375554 -0.1466483136 -0.7163804638 -0.6821241113 3.673419846e-39
-3.096066197 -2.765814095 -2.092310538 0.1540010553 0.7398827467 0.6548718929 3.673419846e-39
-3.196090791 -2.761723893 -2.088432224 0.1633784938 0.7533604756 0.6369893732 1.836709923e-40
-3.299784377 -2.787154305 -2.023900569 -0.199252561 -0.7687431092 -0.6077272817 1.285696946e-39
-3.522376856 -2.733718439 -2.084357545 0.2958164081 0.7415954494 0.6021036806 7.346839693e-40
-3.495368443 -2.766382132 -1.994595934 -0.2801126207 -0.7634009584 -0.5820274018 7.346839693e-40
-3.5915653 -2.76330117 -1.937244759 -0.3341826069 -0.7535741316 -0.5660812782 1.285696946e-39
-3.69351938 -2.779256943 -1.826966436 -0.3808123094 -0.7380938737 -0.5569554907 1.836709923e-40
-3.789402535 -2.778950162 -1.745174014 -0.414941197 -0.7195753254 -0.5568080047 9.183549616e-41
-3.891542427 -2.789164871 -1.645102158 0.4443336839 0.6989225507 0.5604238088 3.673419846e-40
-3.992618352 -2.802627651 -1.545700492 0.4662883444 0.6857841188 0.5588160004 4.591774808e-40
-4.08324209 -2.798189149 -1.471794342 0.4859789988 0.6790662224 0.5501758613 6.428484731e-40
2.885152206 1.632801335 -2.905472097 0.06207906655 0.32996606 -0.9419493557 5.510129769e-40
-1.312562478 1.328420612 -2.84858536 0.05649285617 -0.3902336866 0.9189810809 0
-3.721637681 3.153894041 -1.755035922 0.1252118439 0.08171271279 -0.9887593371 5.510129769e-40
-1.136474885 7.025220389 -2.124509949 -0.4313886757 0.04248447282 -0.9011652901 0
-3.963907252 8.027260103 -6.680104659 0.6330437638 0.1068832656 0.7667017417 2.571393892e-39
-3.1124739 1.452262333 -2.615242582 0.2619557488 -0.3235003229 0.9092451412 9.183549616e-41
-4.213106642 1.278517514 -2.121659028 0.4547080188 -0.3419816924 0.8223680074 4.591774808e-40
-3.828416636 4.324922724 -1.659194702 0.2531195657 -0.05776280227 -0.965709037 3.673419846e-40
-3.942648433 -2.281274259 2.849689159 0.3752984376 0.5894621569 -0.7153219193 5.510129769e-40
-4.236413688 -1.884238346 2.977968068 0.425571688 0.4785267556 -0.7680500521 5.510129769e-40
-2.620434774 5.045613034 -1.027014471 -0.2402165514 0.2686434615 0.9328058206 5.510129769e-40
-4.316975286 3.00833977 -1.794269102 0.09210121174 0.00330450568 0.9957441675 9.183549616e-41
-4.818354427 4.465766602 -1.533542626 0.4643673787 0.07763443306 0.8822334342 9.183549616e-40
-0.5178559116 7.730864596 -2.422260042 -0.5046663069 0.2712289812 -0.8196015852 8.265194654e-40
-0.6167801903 7.729142707 -2.359989682 -0.5241163509 0.3070217951 -0.7943800526 8.265194654e-40
-3.723797553 1.160712002 -2.459525385 0.4286386121 -0.3278338706 0.8418989806 9.183549616e-41
-3.829249867 1.16000948 -2.393149421 0.4480623086 -0.3350650379 0.8288374919 0
-3.925394104 1.154164965 -2.33462324 0.455581203 -0.3400563309 0.8226830856 4.591774808e-40
-4.013119535 1.143065284 -2.287156261 0.4547033657 -0.3436264081 0.8216846968 4.591774808e-40
-3.99328356 1.176940429 -2.282615544 0.4575593406 -0.343977956 0.8199503739 4.591774808e-40
-4.210817614 1.135395217 -2.181151808 -0.4551057668 0.3455378489 -0.8206596956 4.591774808e-40
-4.310558397 1.132012 -2.129570315 0.4604621643 -0.3452250706 0.817798414 4.591774808e-40
-4.41001627 1.128145713 -2.077537022 0.4713080585 -0.3458780513 0.8113181174 4.591774808e-40
-3.230380691 3.733353982 -1.568834188 0.3563317044 0.1591725617 -0.9207018041 3.673419846e-40
-4.013928608 1.28488909 -2.224712021 0.4567899182 -0.3459475548 0.8195506452 4.591774808e-40
-0.7292079372 7.149485012 -2.401388917 0.4074376182 0.05670108489 0.9114711044 5.510129769e-40
0.7697046691 7.079077318 -2.59909785 -0.05271378175 -0.6214657024 -0.7816659375 3.673419846e-39
-0.08532200544 7.041171928 -2.589163695 0.1540626552 0.4054701637 0.9010319887 1.836709923e-39
-5.103122666 -2.627922112 0.6198331615 0.6888071984 0.7178061827 -0.1014836312 0
-3.921582612 1.292919668 -2.27565953 0.4579633999 -0.345699708 0.8190001443 4.591774808e-40
-2.613476761 4.809132723 -0.9526402079 -0.5270878178 0.1500616313 0.8364567767 5.510129769e-40
-5.024655277 4.168750636 -1.466641621 -0.4698964071 0.09593579739 -0.8774928429 2.755064885e-40
-4.711813621 1.09237703 -1.908956849 -0.5260553639 0.3503000753 -0.7749552318 4.591774808e-40
-5.713855422 3.565878698 -1.143347007 0.6299717336 -0.2410901062 0.7382487221 2.755064885e-40
-2.794288685 1.796579875 -2.547078883 0.1811713916 -0.4440908454 0.8774737876 9.183549616e-41
-4.114166496 1.565399855 -2.059414521 0.4363168703 -0.3554828255 0.8265951545 4.591774808e-40
-2.410060605 1.313596369 -2.774603185 -0.09194135845 0.3215121264 -0.9424312915 9.183549616e-41
-3.016628346 1.741915277 -2.525205359 -0.2506484961 0.4308943263 -0.8668941175 9.183549616e-41
-3.918600568 3.155766755 -1.783429766 0.0713120055 0.04760334061 -0.9963174794 5.510129769e-40
-4.313706965 1.275781199 -2.071319343 0.4620956327 -0.339175017 0.8194070625 4.591774808e-40
-2.075512296 6.414673385 -1.640491894 -0.5510841609 -0.03230897138 -0.833823949 1.836709923e-40
5.395933907 -2.481245667 -3.217058573 0.6189070578 -0.1279281434 -0.7749764151 9.183549616e-41
5.309750755 -2.48029933 -3.285481712 0.6064146082 -0.1179652134 -0.786349497 1.836709923e-40
5.079912828 -2.409631738 -3.470942998 0.5608299271 -0.04874064411 -0.8264950953 1.836709923e-40
5.105020662 -2.466610769 -3.444684987 0.5741921291 -0.0722587069 -0.8155256453 2.755064885e-40
5.134186617 -2.566435052 -3.40396576 -0.5939292816 0.1018663592 0.7980421376 1.836709923e-40
4.906303639 -2.455767491 -3.586987125 0.5315541352 -0.01801846875 -0.8468326494 1.836709923e-40
4.800574474 -2.450398936 -3.654257895 0.5013587891 0.006147624268 -0.8652176439 2.755064885e-40
4.698009919 -2.445584541 -3.712597243 0.4714200978 0.01987286717 -0.881684842 4.683610304e-39
4.598510112 -2.441762061 -3.763848647 -0.4412385599 -0.02620713213 0.89700709 4.683610304e-39
4.502005049 -2.43843469 -3.808682005 -0.4150328944 -0.02476190637 0.9094693753 4.683610304e-39
4.481095747 -2.505261949 -3.825002466 -0.4070123686 -0.001614380989 0.9134212202 4.683610304e-39
4.303871806 -2.433000876 -3.888742961 -0.3775982026 -0.006141256596 0.9259491791 2.755064885e-40
4.194244403 -2.428386428 -3.928884744 -0.3664763796 0.009171094223 0.9303821549 2.755064885e-40
4.102732158 -2.544551182 -3.954554055 -0.3389354758 0.05973747273 0.938911166 4.040761831e-39
3.984678682 -2.41989662 -4.004395149 0.3582214676 -0.04917160284 -0.9323408892 3.673419846e-40
3.892162083 -2.418320682 -4.038382618 -0.3566798925 0.07113080799 0.9315148214 3.673419846e-40
3.546854402 -2.378960156 -4.183543709 -0.3346085056 0.1533528987 0.9297956961 6.428484731e-40
3.697211703 -2.414829121 -4.113246758 -0.3466360464 0.1211144258 0.9301477018 1.836709923e-40
3.597155557 -2.411799496 -4.152145146 -0.3359303258 0.1442725713 0.9307718525 4.591774808e-40
3.492005631 -2.404111434 -4.192977961 0.3181763965 -0.1642800449 -0.9336893742 6.428484731e-40
3.396198675 -2.405138216 -4.223185784 0.2977532366 -0.1789831818 -0.9377142586 1.836709923e-40
3.2973873 -2.404243767 -4.251084558 0.2754422442 -0.188257317 -0.9427039581 4.591774808e-40
3.296314079 -2.381608171 -4.264138672 0.2731282663 -0.1921041471 -0.94260116 1.836709923e-40
3.096804187 -2.39962406 -4.297288572 0.2392727863 -0.1949208798 -0.951185778 5.510129769e-40
2.998701926 -2.400192519 -4.316591882 0.227210238 -0.1944714831 -0.9542307635 5.510129769e-40
2.902323928 -2.404777746 -4.334669372 -0.2197231109 0.1922082648 0.956440138 5.510129769e-40
2.799365239 -2.398872761 -4.357775618 -0.213482184 0.1903605427 0.9582213841 4.591774808e-40
2.698664949 -2.396440225 -4.379497363 0.2095728479 -0.1889138238 -0.9593699957 6.70399122e-39
2.600405824 -2.397515746 -4.399900723 0.2058918553 -0.186555435 -0.9606277185 1.836709923e-40
2.504106647 -2.402335511 -4.418876742 0.205128753 -0.1844769336 -0.9611922054 3.673419846e-40
2.403565236 -2.398922206 -4.440522087 0.2056905415 -0.183686615 -0.9612235061 5.510129769e-40
2.300289388 -2.393786368 -4.463716058 0.2090298853 -0.1832557053 -0.960585162 5.510129769e-40
2.199592111 -2.391377479 -4.485860617 0.2125773149 -0.1826381831 -0.9599240487 9.183549616e-41
2.101721088 -2.392414865 -4.507115543 -0.2181811833 0.1816920777 0.9588456394 3.673419846e-40
2.004012328 -2.393803044 -4.529739816 0.2257386124 -0.1800929592 -0.9573967855 4.591774808e-40
1.901482167 -2.389507519 -4.557818822 0.2325511242 -0.1779553757 -0.9561651839 1.836709923e-40
1.797508723 -2.383577325 -4.590199048 0.2357607613 -0.1725580771 -0.9563684298 9.183549616e-41
1.704265284 -2.394144909 -4.615530525 -0.2350599742 0.1675359953 0.9574332869 5.510129769e-40
1.602620157 -2.385488437 -4.650013532 0.2246569508 -0.1571493516 -0.9616825546 2.755064885e-40
1.495920044 -2.374713064 -4.684248468 0.2038317708 -0.1455194089 -0.9681305237 4.591774808e-40
1.399249424 -2.37596291 -4.709277129 -0.1773193737 0.1383154385 0.9743852827 4.591774808e-40
1.302248456 -2.379024293 -4.729036483 0.1436987362 -0.1332508495 -0.9806094454 5.510129769e-40
1.200452135 -2.376115077 -4.745514009 0.1026044258 -0.1294769513 -0.9862596265 6.428484731e-40
1.100116379 -2.375187252 -4.755152147 -0.05787751481 0.1289374518 0.9899622855 2.755064885e-40
1.000303364 -2.376324364 -4.759299128 -0.01450708955 0.1330428825 0.9910041048 0
0.9000200249 -2.377005613 -4.759515087 -0.03424921196 -0.142156879 -0.9892514409 1.836709923e-40
0.7982000608 -2.382532161 -4.7539516 0.08877980727 0.1564066543 0.9836946194 0
0.7000806079 -2.378619084 -4.744852994 0.1448532332 0.168257514 0.9750420246 2.755064885e-40
0.600408959 -2.379514423 -4.728515808 0.2115243837 0.1846764548 0.9597666602 3.673419846e-40
0.503844511 -2.378637545 -4.705369143 0.281729673 0.2017187146 0.9380500795 9.183549616e-41
0.4033473563 -2.382853887 -4.670801314 -0.3585821121 -0.2210553774 -0.9069472912 9.183549616e-41
0.3029860458 -2.388228343 -4.62277498 -0.4330940905 -0.2401553079 -0.8687663304 9.183549616e-41
0.1976025504 -2.397690971 -4.556248461 -0.5072382284 -0.2606953829 -0.8214300317 0
0.1030748702 -2.400296838 -4.484657075 -0.5676728121 -0.2774839346 -0.7750807987 2.755064885e-40
0.006178359074 -2.407168602 -4.393754263 -0.6313102921 -0.2961301887 -0.7167665076 2.755064885e-40
-3.516912825 2.432826337 -1.856711307 0.1750662813 -0.37120735 0.9118974177 9.183549616e-41
-3.417441735 2.435628247 -1.882640083 -0.18798987 0.4225148999 -0.8866459091 9.183549616e-41
-4.122246576 4.324995348 -1.689905143 -0.05293668359 0.1297536891 0.9901321567 3.673419846e-40
-4.985612655 -1.816145587 2.41192532 0.6442298508 0.4967181865 -0.5815831346 5.510129769e-40
-5.063806362 1.187395863 2.596867789 -0.6314422327 -0.4321241046 0.6438551584 5.510129769e-40
-3.228216847 1.703322769 -2.487685253 0.3152725399 -0.4225344702 0.8497457543 9.183549616e-41
-4.240737059 5.702153213 -5.609419125 0.1162339404 0.8490774004 0.5153224615 7.346839693e-40
-0.8024506764 -2.559717631 -2.66459165 0.6107570461 0.3750829425 0.6973439732 3.673419846e-40
-0.9043741391 -2.57058519 -2.58308409 0.4710069275 0.3931765464 0.7896611156 1.836709923e-40
-0.9188265293 -2.366776235 -2.664056026 -0.4830954307 -0.3563208275 -0.7997838912 9.183549616e-41
-1.102035413 -2.581501085 -2.531701123 0.2328654027 0.4058792901 0.8837622452 9.183549616e-41
-1.200406468 -2.576921041 -2.535609113 0.1544662167 0.4027508845 0.9021817516 4.591774808e-40
-1.298220535 -2.574610041 -2.545243295 0.1032438464 0.3961720417 0.9123532329 6.428484731e-40
-1.397260227 -2.561898615 -2.560302671 -0.08583728744 -0.3889685571 -0.9172433819 0
-1.494643733 -2.554524812 -2.570547956 -0.09040713346 -0.3811835872 -0.9200682709 0
-1.591594625 -2.550061811 -2.573089701 0.1148777614 0.3756621367 0.9196091882 0
-1.691430431 -2.556273453 -2.55645903 0.1535186735 0.3725565674 0.9152232629 0
-1.790377627 -2.557343447 -2.528366143 0.1905580524 0.3695623095 0.9094566114 0
-1.890385208 -2.565666245 -2.484814858 0.2179802142 0.3716464977 0.9024209145 0
-1.991366286 -2.572403992 -2.439726089 0.2314611184 0.3801898729 0.8954783142 0
-2.090099813 -2.575943178 -2.399350088 0.2287448612 0.3959342445 0.8893322565 3.673419846e-40
-2.15840441 -2.592504958 -2.359805152 -0.2339767915 -0.4074975312 -0.8827234126 1.19386145e-39
-2.2938721 -2.586764339 -2.333108411 0.1797799639 0.4497319672 0.8748830335 1.19386145e-39
-2.392466822 -2.581000802 -2.321065919 -0.140144083 -0.4854476122 -0.8629601681 1.285696946e-39
-2.500544299 -2.720317937 -2.229048889 -0.1873698364 -0.5166382198 -0.8354504738 1.19386145e-39
-2.594315836 -2.589439198 -2.307979741 -0.0846302971 -0.5545243867 -0.8278528959 1.285696946e-39
-2.694661037 -2.590848272 -2.309970517 0.06588674197 0.5879188199 0.8062322237 1.285696946e-39
-2.794251649 -2.586221595 -2.317655348 0.05500071309 0.6107573996 0.7899052604 1.285696946e-39
-2.893983405 -2.581856062 -2.326234551 0.05127240328 0.6293013788 0.775468191 1.285696946e-39
-2.993177582 -2.570478079 -2.341118292 0.05724654504 0.6399057084 0.7663181568 1.285696946e-39
-3.092608719 -2.577562575 -2.334748071 0.0799948329 0.6550890458 0.7513049772 1.285696946e-39
-3.192461201 -2.58193591 -2.324803964 0.1154972319 0.6638677044 0.738877568 1.285696946e-39
-3.290273081 -2.575778464 -2.317678454 0.1567162142 0.6625675635 0.7324235469 2.3877229e-39
-3.322113095 -2.588943698 -2.302906685 0.1705687989 0.6682252517 0.7241417664 2.3877229e-39
-3.495154106 -2.606341804 -2.223618685 -0.2714242342 -0.690301883 -0.6706803974 2.3877229e-39
-3.595604731 -2.611862375 -2.16004331 -0.3316222994 -0.6969395732 -0.6358473731 6.428484731e-40
-3.515718019 -2.722687594 -2.08554916 0.2879554442 0.7432476554 0.6038746434 7.346839693e-40
-3.787269674 -2.6108029 -1.995284323 0.4229157721 0.7055649364 0.5686126715 2.3877229e-39
-3.881829321 -2.609504044 -1.897652753 -0.4476934459 -0.7045247777 -0.5506499942 2.3877229e-39
-3.979931334 -2.613939147 -1.785306733 0.4652253117 0.7004642504 0.5412164477 2.3877229e-39
-4.080586526 -2.631929109 -1.661337978 -0.4755843571 -0.6936027255 -0.5410497005 9.183549616e-41
-4.184336311 -2.647697801 -1.548518675 0.4861128128 0.6889820059 0.5375854619 6.428484731e-40
-4.2816589 -2.64563246 -1.466098372 0.4968021231 0.6907708255 0.5253792127 0
-2.92283913 4.755462558 -1.103845054 0.4455178133 0.1457011943 -0.883337444 5.510129769e-40
-5.611704858 3.567770573 -1.220914948 0.5888232757 -0.2309580008 0.7745615223 2.755064885e-40
-3.217265832 1.878803617 -2.372310648 0.3124185469 -0.4964738447 0.8098817031 9.183549616e-41
-3.326115029 3.148589089 -1.664439738 -0.2147899165 -0.1973667666 0.9565101417 9.183549616e-41
1.693510336 8.20845894 -3.834744773 0.7868562639 0.2986913356 0.5400376894 1.102025954e-39
0.5215961992 8.179682625 -2.931271147 -0.5371979939 0.09833225103 -0.8377046519 3.306077862e-39
-4.712479372 3.296421475 -1.721486477 -0.2502301405 0.06333421293 -0.9661126509 5.510129769e-40
-5.221544764 -2.374849662 1.085278607 0.7427260519 0.6284827786 -0.2310138715 0
-3.652048323 -2.430253142 2.868440644 0.3067054807 0.6248460265 -0.7179827235 5.510129769e-40
-2.720794989 5.047879009 -1.03876108 0.2311398509 -0.160109117 -0.9596558967 5.510129769e-40
-4.762776259 1.598383931 3.748783537 -0.01891394864 -0.8663594076 0.499062761 0
-4.412853468 1.271977075 -2.019395746 0.4756624076 -0.336443159 0.8127430558 4.591774808e-40
-2.90659283 -5.93286476 3.744462425 0.1134187654 0.5267282422 -0.8424331086 3.673419846e-40
-4.604485302 1.117862418 -1.967571401 -0.5040606115 0.3475169039 -0.7906673773 4.591774808e-40
-4.70428713 1.113987868 -1.904291619 -0.5256760216 0.3478614252 -0.7763099569 4.591774808e-40
-4.79743828 1.106369724 -1.844497666 -0.5468959082 0.349195509 -0.7608990486 4.591774808e-40
1.099670881 8.615032492 -3.511479476 -0.6253767814 0.1811093631 -0.759014677 9.183549616e-41
-2.441162295 6.236880196 -1.376207896 0.5980792911 -0.04867342436 0.799957536 3.673419846e-40
0.7997009431 7.655457523 -2.929095045 0.2998690882 0.4024675563 0.8649268154 3.673419846e-39
-1.325622538 6.257549829 -1.952454303 -0.2683089172 -0.397230224 -0.8776209171 1.836709923e-40
-2.302427593 -2.491041404 3.061938392 0.2320889497 0.4899373598 -0.8402952475 7.346839693e-40
-2.769696875 4.522315188 -1.070153103 -0.5629327404 -0.1225996692 0.8173591933 5.510129769e-40
1.488481625 1.20768595 -3.101698319 0.09540117158 -0.405621848 0.9090486966 1.836709923e-40
0.5518995677 -5.877021126 4.434097535 -0.1745241778 0.5051982578 -0.8451721905 5.510129769e-40
0.6669252807 7.06969426 -2.577822543 -0.03577023804 -0.5898897634 -0.8066911163 3.673419846e-39
-4.190528694 -2.425037 2.56908734 0.4269176111 0.6523284857 -0.6262658382 5.510129769e-40
-5.064298524 -1.776761218 2.360290328 0.6557529361 0.5008997312 -0.5648783462 9.183549616e-41
-3.423521969 3.445669651 -1.668636622 -0.2605876831 -0.126933955 0.9570693969 0
-2.428639273 5.497462563 -1.242594336 -0.2272662096 -0.3381782723 -0.91322808 5.510129769e-40
-4.214505536 1.704851928 -1.945871978 -0.4197532779 0.3353753512 -0.8434041496 4.591774808e-40
-4.218496496 3.591465069 -1.765260336 0.04831611462 -0.1024899005 0.9935599496 3.673419846e-40
-4.713602493 3.150942712 -1.726972744 0.2478664779 -0.02141449677 0.9685574988 9.183549616e-41
-3.719481099 3.886813057 -1.690510647 -0.196338658 -0.1165271832 0.9735874624 3.673419846e-40
-1.632392887 5.946375964 -1.711044416 0.2319063675 0.4595644753 0.8573330332 1.836709923e-40
-0.9766918199 6.982090114 -2.209860759 0.3885337539 0.04380055798 0.920392869 3.673419846e-40
-3.11541092 1.738487214 -2.496490515 0.2780685686 -0.436255926 0.85577955 9.183549616e-41
-0.6254982626 7.297406157 -2.443760044 0.4167747141 -0.006467716853 0.9089868021 5.510129769e-40
-6.019920913 1.719050457 3.370127299 0.4807210236 0.7849247603 -0.3908969406 0
5.489832146 -2.341937558 -3.172878167 -0.6304525509 0.09718702814 0.7701196418 1.836709923e-40
5.398576328 -2.338376542 -3.246805279 -0.609371992 0.08757312715 0.7880334528 1.836709923e-40
5.304676922 -2.334617084 -3.318216209 -0.5901594809 0.07278817233 0.8039985505 4.591774808e-40
5.202594119 -2.328594835 -3.39166861 -0.5702584482 0.05234378806 0.8197959686 2.755064885e-40
5.104690208 -2.323897367 -3.458685593 0.5505087528 -0.02858535967 -0.834339853 0
5.202090626 -2.218340972 -3.399459664 0.5559010455 -0.01293172316 -0.8311478798 9.183549616e-41
4.902708585 -2.314308417 -3.582607978 0.5078568637 0.02384829616 -0.8611112964 9.183549616e-41
4.809759611 -2.310142591 -3.634734663 0.4871083118 0.04272661494 -0.8722957806 9.183549616e-41
4.70071942 -2.307404539 -3.692976713 0.4626422744 0.05902620402 -0.8845778842 0
4.6001448 -2.30251142 -3.743134064 -0.4406486321 -0.06659544038 0.8952060268 0
4.498818241 -2.299643005 -3.790966994 0.4218764726 0.06475030628 -0.904338233 9.183549616e-41
4.400978115 -2.295983833 -3.833703503 0.4064890617 0.05807830031 -0.9118078491 1.836709923e-40
4.297868745 -2.293114702 -3.877011161 0.3946312917 0.04574834799 -0.9176999686 1.836709923e-40
4.193966695 -2.289733033 -3.918690544 -0.3878628463 -0.03041811923 0.9212150403 3.030571373e-39
4.090252341 -2.285972388 -3.960397601 -0.38623635 -0.01153590932 0.92232771 3.030571373e-39
3.99586717 -2.282504 -3.99952111 0.3869996336 -0.008060628426 -0.9220446355 3.030571373e-39
3.901969133 -2.281025861 -4.039921485 -0.3875670527 0.03047747809 0.9213375619 3.030571373e-39
3.804644233 -2.279529316 -4.083908609 -0.3862876008 0.055619598 0.9206999239 3.030571373e-39
3.708072135 -2.277347476 -4.129299988 -0.3803131482 0.0809978723 0.9213041051 3.030571373e-39
3.602175182 -2.272189634 -4.179746879 -0.36544009 0.1074705854 0.9246099793 1.836709923e-40
3.633423241 -2.158400708 -4.194084885 0.4076404994 -0.05146670336 -0.9116909573 3.030571373e-39
3.395922491 -2.26197985 -4.264474007 -0.3149308065 0.144954695 0.9379801296 4.591774808e-40
3.265447015 -2.139860636 -4.338940123 0.2856941711 -0.1164619822 -0.9512178758 6.428484731e-40
3.198130996 -2.259597196 -4.319734112 0.262513314 -0.1673023996 -0.9503139834 6.70399122e-39
3.099900205 -2.260096938 -4.339999757 0.2438558469 -0.1740970938 -0.9540568787 6.70399122e-39
2.998936892 -2.257499127 -4.359974311 -0.2286060313 0.1783028877 0.9570513898 6.70399122e-39
2.899949127 -2.258072869 -4.378363154 0.2179031187 -0.1816620219 -0.9589145638 6.70399122e-39
2.798875808 -2.255342028 -4.39827572 0.2124793627 -0.1830683189 -0.9598637982 6.70399122e-39
2.697994283 -2.252938999 -4.418660736 0.20821748 -0.1840291789 -0.9606137321 6.70399122e-39
2.599055971 -2.25325871 -4.437454468 0.2052710756 -0.1848770144 -0.9610849469 6.70399122e-39
2.500373547 -2.253893744 -4.456190735 0.2035811636 -0.184346058 -0.9615462759 6.70399122e-39
2.404388794 -2.257363968 -4.473760521 0.2038634032 -0.1836097455 -0.9616273572 6.70399122e-39
2.305821962 -2.258246931 -4.493687819 -0.2063087118 0.1813534322 0.9615340078 6.70399122e-39
2.205412541 -2.255969213 -4.515134623 -0.2104049864 0.1787392176 0.961135804 0
2.104952798 -2.254204084 -4.538161233 -0.2154603955 0.1756866789 0.9605784761 0
1.810560969 -2.022697029 -4.643715195 -0.1990666064 0.1157185726 0.9731298465 1.836709923e-40
2.055899666 -2.329986809 -4.528993777 0.2191324402 -0.1790289389 -0.9591296121 9.183549616e-41
1.795617138 -2.238079178 -4.623897439 0.2253550577 -0.1505966822 -0.9625672638 0
1.887933097 -2.373953173 -4.575525377 0.2319968833 -0.1768994408 -0.9564957052 1.836709923e-40
1.601517369 -2.241131992 -4.676768427 0.2102286281 -0.1277279114 -0.9692726678 0
1.499100411 -2.237152314 -4.703636203 0.1915538402 -0.1139137251 -0.9748491112 3.489748854e-39
1.398908659 -2.235131076 -4.726241209 0.1652503425 -0.1024704178 -0.9809139298 3.489748854e-39
1.297974341 -2.233284941 -4.744617298 0.1345355834 -0.09355633487 -0.9864823308 3.489748854e-39
1.198453132 -2.232391799 -4.758106158 -0.09905062219 0.09013978918 0.9909913182 2.755064885e-40
1.098486115 -2.231510808 -4.766642122 -0.05996194118 0.09040377494 0.9940984474 2.755064885e-40
0.9992999993 -2.232275677 -4.770933441 -0.02228157695 0.09463957566 0.9952622177 0
0.8998808501 -2.232637311 -4.772355875 0.0178399945 0.1019571218 0.9946288151 1.836709923e-40
0.8004119934 -2.232946563 -4.770646104 0.06726802161 0.1130761336 0.9913066132 0
0.7017757085 -2.232457766 -4.764568869 0.1201162273 0.1257979341 0.9847573161 1.836709923e-40
0.6026556272 -2.233577269 -4.752171265 0.1839880894 0.1409923946 0.9727638601 2.755064885e-40
0.5023207017 -2.236425411 -4.731572172 -0.2562500089 -0.1580580865 -0.953600322 9.183549616e-41
0.3969031743 -2.193773693 -4.7068429 -0.3295239849 -0.165192612 -0.9295834251 1.836709923e-40
0.4738006954 -2.24907891 -4.72194487 -0.2795111046 -0.1671247102 -0.9454855227 9.183549616e-41
0.1999844573 -2.25113625 -4.602570472 -0.4804611411 -0.2200605264 -0.848958454 1.836709923e-40
-0.03843237022 -2.007592625 -4.495050204 0.5978594244 0.1784731758 0.781480284 4.591774808e-40
-0.1106321957 -2.424501012 -4.256424936 0.7106315203 0.3110111456 0.6310902548 2.755064885e-40
-0.08378641411 -2.263964932 -4.369365356 0.6654926803 0.2728638728 0.6947408145 2.755064885e-40
3.691466152 0.7875286323 -2.988517054 0.07413556977 0.3983017873 -0.9142535773 5.510129769e-40
-4.899464108 1.103161253 -1.771817176 -0.5721474461 0.3503454174 -0.7415560588 4.591774808e-40
-4.222348426 4.323340831 -1.688074725 0.0255606126 0.1328213621 0.9908103456 3.673419846e-40
-3.826636571 6.604505212 -6.612896915 0.2639927815 0.4968892698 0.8266854691 6.428484731e-40
-3.010510885 1.593209477 -2.595502968 0.2402527975 -0.3672010731 0.8985777458 9.183549616e-41
3.59252763 0.7922510486 -2.990361433 0.08692398779 0.3751841654 -0.9228656795 5.510129769e-40
-0.803321965 -2.410827775 -2.740696051 0.6434130888 0.3532369028 0.6791489436 0
-0.9028940283 -2.419663468 -2.654548738 0.5021341536 0.3666739555 0.783205913 2.755064885e-40
-0.9962194775 -2.41750913 -2.618999471 0.382367364 0.3725109251 0.8455949442 9.183549616e-41
-1.100401934 -2.428020227 -2.59735384 0.2595260835 0.3723815431 0.8910545429 9.183549616e-41
-1.198710035 -2.423296815 -2.599933294 0.177820407 0.3681180263 0.9126165797 0
-1.298331521 -2.426246475 -2.606604596 0.1187783575 0.3612706326 0.9248649803 0
-1.397030183 -2.413997904 -2.619352646 0.0984520637 0.3513569348 0.9310507481 0
-1.493922872 -2.406573674 -2.628382336 0.09866727831 0.3444197167 0.933616531 0
-1.342960467 -2.545027685 -2.579103886 0.161620483 0.4009001572 0.9017526731 6.428484731e-40
-1.429588173 -2.39794855 -2.635153173 0.123866788 0.3449940471 0.9303956827 0
-1.791669863 -2.413756079 -2.583825324 0.1830345725 0.3534532631 0.9173707735 1.836709923e-40
-1.895202922 -2.425944186 -2.537452163 0.2037325113 0.3678338489 0.9072989163 2.755064885e-40
-1.996102378 -2.433288502 -2.493010371 -0.2082221673 -0.3850900526 -0.8990824102 2.755064885e-40
-2.097901971 -2.442524105 -2.451156464 0.1950619512 0.4082217718 0.891799204 2.204051908e-39
-2.197074426 -2.444272136 -2.42219366 0.163074541 0.4351590373 0.8854621992 2.204051908e-39
-2.29504556 -2.438448218 -2.40744501 -0.119465274 -0.4639310856 -0.8777790133 2.204051908e-39
-2.394380407 -2.429675202 -2.406586408 -0.0760007863 -0.4895748602 -0.8686428131 2.204051908e-39
-2.495063608 -2.424669501 -2.413446302 0.04233429592 0.5146388042 0.8563613189 2.204051908e-39
-2.595787687 -2.421646015 -2.423950541 0.01955073807 0.5331460049 0.8457973198 2.204051908e-39
-2.696068239 -2.425927507 -2.432027116 0.008059645311 0.5501502834 0.8350267707 2.204051908e-39
-2.795734357 -2.423941351 -2.443105403 0.006169454589 0.560431352 0.8281779021 2.204051908e-39
-2.895240909 -2.421256837 -2.453452856 0.01593323532 0.5681106176 0.822797945 9.183549616e-41
-2.994918676 -2.430838074 -2.452116159 0.03640176015 0.5762252093 0.8164798956 9.183549616e-41
-3.094632611 -2.431773471 -2.452441064 0.06732643925 0.5780574315 0.8132138442 2.571393892e-39
-3.194557404 -2.436037388 -2.443538267 0.1076451129 0.579703101 0.8076861051 2.571393892e-39
-3.294123668 -2.436821836 -2.42972433 0.1522085719 0.5812601253 0.7993555012 2.571393892e-39
-3.39380301 -2.439927019 -2.405384324 0.2011640711 0.5906972029 0.7814152744 6.428484731e-40
-3.496238899 -2.451445587 -2.363297732 -0.2550225695 -0.6067890162 -0.7528416692 6.428484731e-40
-3.601858256 -2.469505575 -2.299295737 -0.3133377473 -0.6330851498 -0.707829534 6.428484731e-40
-3.704987904 -2.479676457 -2.225060481 -0.3653077755 -0.6526008816 -0.6638240116 6.428484731e-40
-3.798273314 -2.47221136 -2.161682133 -0.404334011 -0.6641478308 -0.6288256247 6.428484731e-40
-3.893344348 -2.471093429 -2.077796875 -0.4370067065 -0.6780831402 -0.5909554919 6.428484731e-40
-3.988582174 -2.47235987 -1.983363393 -0.4565396503 -0.6891464201 -0.5627155225 6.428484731e-40
-4.154072961 -2.473823544 -1.793890276 0.479575159 0.6951179385 0.5355545897 3.948926335e-39
-4.166140779 -2.449802313 -1.844311784 0.469126634 0.6973713787 0.5418425615 6.428484731e-40
-4.293165559 -2.511052551 -1.633806865 0.4743166654 0.7039871932 0.5286073521 1.836709923e-40
-4.387413699 -2.507620021 -1.563077699 0.4827724098 0.7062806529 0.517782232 6.428484731e-40
-4.473654466 -2.48920146 -1.522515828 -0.4925454491 -0.7092161865 -0.5043920909 6.428484731e-40
3.493437267 0.789325178 -2.998362868 0.1010401078 0.3611529239 -0.9270164304 5.510129769e-40
-3.818517061 1.436240915 -2.283933918 0.4532673404 -0.3584470172 0.8161277192 9.183549616e-41
1.645885058 8.229249772 -3.782112179 0.7003861211 0.2814752166 0.6559199522 1.102025954e-39
0.4167319745 8.173980735 -2.862601668 -0.5357627241 0.1551222432 -0.8299972247 3.306077862e-39
-2.171636746 6.691618293 -1.535781157 -0.660524359 0.2025186814 -0.7229756253 9.183549616e-41
-3.968140589 8.16829425 -6.700170373 0.6043167268 0.0959089585 0.7909505455 2.571393892e-39
-5.80899948 2.188931721 3.918810797 -0.3623638456 -0.3685316726 0.8560822681 0
-2.923842337 -2.759984221 2.776171311 -0.1606528096 -0.6724273122 0.7225179476 1.836709923e-40
-5.241994975 -2.517360686 0.5015248101 0.7309721863 0.6792164384 -0.06591428311 0
-3.829296291 -3.297289804 1.464811223 -0.3317872798 -0.8623329455 0.3824906431 1.836709923e-40
1.051025792 8.479542457 -3.313108923 -0.6497269281 0.05426684545 -0.7582282165 9.183549616e-41
-3.11199403 1.309649761 -2.652837994 -0.2498003327 0.2872335207 -0.9247143875 9.183549616e-41
-2.624632538 -2.40156347 3.067007501 0.1127133406 0.5636287365 -0.8183021143 7.346839693e-40
1.148832923 8.352933467 -3.373425556 0.626226629 0.07935182044 0.7755923528 9.183549616e-41
0.113488772 8.155872543 -2.674333386 -0.5512358702 0.339099104 -0.762332482 8.265194654e-40
3.390591448 0.782227856 -3.01158712 0.1146248744 0.3539448597 -0.9282155862 5.510129769e-40
-5.045718015 1.023269077 -1.679957252 -0.5950878197 0.358747599 -0.719145776 4.591774808e-40
-3.674737845 8.018602532 -6.894297795 0.5351542359 0.02625230645 0.8443463508 2.571393892e-39
-3.036197879 5.937992163 -0.9530520642 -0.4578536209 0.4043853879 -0.7917338694 1.836709923e-40
-3.703943434 -3.375246187 1.383980895 -0.300270945 -0.8819912863 0.3632199478 1.836709923e-40
-4.13426274 5.835382057 -5.901411175 0.1344130391 0.813289471 0.5661213398 7.346839693e-40
-4.480740871 -3.119729408 1.008143692 -0.5980248004 -0.7657466671 0.2366397684 0
-6.151581854 1.917458692 3.53649068 -0.5824296489 -0.6044626158 0.5435077277 0
-2.52655781 5.204615939 -1.093507582 -0.04405166139 0.36580186 0.9296496385 5.510129769e-40
-3.522400643 3.446515848 -1.696819832 -0.2310455147 -0.1130919545 0.9663478566 0
3.289182045 0.7787245707 -3.025572376 0.1262551967 0.3520615991 -0.9274223718 5.510129769e-40
-4.799686867 1.535781738 -1.644762732 0.5800315941 -0.2615413545 0.7714657929 4.591774808e-40
0.6208457323 8.186424636 -2.994819577 -0.5385111294 0.04788570654 -0.841256633 3.306077862e-39
-1.533852436 6.095332577 -1.813641436 0.265671575 0.4134657702 0.870898772 1.836709923e-40
-4.812232995 3.149571403 -1.700182499 0.287012299 -0.02320547277 0.9576457833 9.183549616e-41
-5.903893287 2.388443178 -1.028047864 -0.6740400986 -0.2822113915 -0.6826614651 3.673419846e-40
-4.472014462 2.526422396 -1.738284016 0.2144260636 0.03710622569 0.9760351383 3.673419846e-40
-4.32125153 4.323622775 -1.678896084 0.1096891708 0.1296185395 0.985478219 3.673419846e-40
-3.530450509 4.321230489 -1.575135488 0.3914810761 0.09213307822 -0.9155621568 6.428484731e-40
-3.76781499 7.17279451 -6.769603113 0.5931204373 0.163366109 0.7883651827 6.428484731e-40
3.187800165 0.7757646138 -3.041080421 0.1366873262 0.3541945959 -0.9251285117 5.510129769e-40
5.499093176 -2.201847767 -3.184929253 -0.6239396245 0.04939527276 0.7799098999 2.755064885e-40
5.393904707 -2.195105564 -3.26671313 -0.5965641105 0.03327904069 0.801875157 0
5.297875976 -2.190558149 -3.335536742 -0.5739728536 0.01962828231 0.8186390498 1.836709923e-40
5.199314484 -2.185959499 -3.40067137 -0.5517336676 0.003114793611 0.8340145431 9.183549616e-41
5.098520966 -2.181539386 -3.462730549 -0.5288092985 -0.01588372385 0.8485920299 9.183549616e-41
4.995241118 -2.177434507 -3.520314967 -0.5066829737 -0.03517717948 0.8614144939 1.836709923e-40
4.901633949 -2.174139084 -3.569663055 -0.4874827617 -0.05186479998 0.8715908441 1.836709923e-40
4.806740193 -2.170503489 -3.617062607 -0.4710256512 -0.06699057403 0.8795721112 9.183549616e-41
4.705916114 -2.167622847 -3.666611859 -0.4548365493 -0.07848619064 0.8871097065 0
4.604420027 -2.163375028 -3.715086848 -0.4403031651 -0.08484987039 0.8938308689 0
4.50314313 -2.160112378 -3.763246796 0.4275704135 0.08480053064 -0.8999957842 3.030571373e-39
4.40606208 -2.15657807 -3.807600031 0.4183040112 0.07928404051 -0.9048402042 3.030571373e-39
4.303463469 -2.153529644 -3.853323066 0.4112680856 0.06891033513 -0.9089058958 3.030571373e-39
4.200681211 -2.150716299 -3.898370378 -0.406911842 -0.05364176797 0.9118910645 3.030571373e-39
4.102682709 -2.147119398 -3.941157002 0.4074022211 0.03874693847 -0.9124264929 3.673419846e-40
4.005613749 -2.144277487 -3.985400659 0.4094289743 0.02160734352 -0.9120860912 7.346839693e-40
3.909181185 -2.14282319 -4.031474659 -0.4126046452 -0.003175437282 0.910904673 6.428484731e-40
3.814048218 -2.141031354 -4.080280582 0.412957955 -0.01633121475 -0.9106036563 6.428484731e-40
3.706537901 -2.134654897 -4.139463918 -0.4087223279 0.03552419765 0.9119671541 6.428484731e-40
3.603644721 -2.130756795 -4.194897122 -0.3933375964 0.05575467206 0.9177019951 6.428484731e-40
3.4981154 -2.124283952 -4.247104822 0.3667569898 -0.07209955211 -0.9275187141 6.428484731e-40
3.398841496 -2.121961146 -4.288147006 -0.3358760867 0.08846276896 0.9377428181 6.428484731e-40
3.297773831 -2.119115945 -4.322080506 -0.3041302997 0.1013010326 0.9472290439 2.755064885e-40
3.201431748 -2.119556017 -4.348170097 0.2774574527 -0.1138857506 -0.9539640443 9.183549616e-41
3.101004079 -2.117943705 -4.371704973 -0.2555395829 0.1234447152 0.9588852506 9.183549616e-41
3.000190122 -2.115978626 -4.392946128 0.239092839 -0.1330014886 -0.9618446955 0
2.901370933 -2.116131901 -4.412068327 0.2266416938 -0.1420611394 -0.9635622322 2.755064885e-40
2.800092691 -2.113691797 -4.431841732 0.2185174733 -0.1498963669 -0.9642516233 7.346839693e-40
2.698824786 -2.111554745 -4.451798964 0.2127959452 -0.1557291172 -0.9646068255 7.346839693e-40
2.599767908 -2.111455815 -4.469973837 0.2083907361 -0.1609911994 -0.9647046879 9.183549616e-40
2.501148733 -2.111942112 -4.487954994 -0.2052704646 0.1636686009 0.9649231189 0
2.403472344 -2.115554941 -4.505257651 -0.2034885519 0.1657808134 0.9649399625 0
2.304083079 -2.113358084 -4.525502079 -0.2049314291 0.1647212228 0.9648160592 0
2.203467339 -2.11154534 -4.547142732 -0.2066769183 0.1626859102 0.9647890682 0
2.102543102 -2.109172534 -4.56966025 -0.2099883592 0.1572361366 0.9649775574 0
2.002756297 -2.106865499 -4.593676832 -0.2121672111 0.1485314829 0.965879637 5.510129769e-40
1.89675876 -2.099614292 -4.620370123 0.2124650641 -0.1357840955 -0.9676886255 1.836709923e-40
1.796961395 -2.098163045 -4.645274902 -0.20897105 0.1223335341 0.9702399738 1.836709923e-40
1.696694196 -2.096436882 -4.669890066 0.2024372294 -0.1076524032 -0.9733602253 2.755064885e-40
1.601381513 -2.098602334 -4.691574248 -0.1914025586 0.09471299884 0.9769311687 1.836709923e-40
1.500232877 -2.096768371 -4.71349533 -0.1753289502 0.08056819602 0.981207687 0
1.359693394 -2.137520744 -4.741065417 -0.1439731005 0.07381736171 0.9868245758 2.755064885e-40
1.297920365 -2.092800069 -4.748104326 -0.1268422574 0.06080533449 0.9900574494 4.867281296e-39
1.197886137 -2.091827526 -4.759833747 0.09774986289 -0.05734600494 -0.9935574468 4.867281296e-39
1.097856301 -2.090629405 -4.768430909 -0.0647024907 0.05815709401 0.9962084823 4.867281296e-39
0.998342163 -2.090702751 -4.774780494 -0.03060476603 0.06394257078 0.9974841833 4.867281296e-39
0.8991318896 -2.092451692 -4.778456752 0.006549570857 0.07028720403 0.9975052943 4.867281296e-39
0.7991767786 -2.093004623 -4.779523569 0.05144226516 0.07948964211 0.9955074536 4.867281296e-39
0.7008535835 -2.091208208 -4.777327186 0.101522655 0.09048388764 0.990709754 4.867281296e-39
0.6031104914 -2.090643825 -4.7694058 0.1625018496 0.1031491215 0.9813018942 4.867281296e-39
0.5027229081 -2.093545564 -4.752556499 -0.2318211792 -0.1184844974 -0.9655155953 0
0.4045874942 -2.095690665 -4.726454458 -0.3063770927 -0.1347953597 -0.9423180398 9.183549616e-41
0.3010406405 -2.101797835 -4.68658814 -0.3848454583 -0.1554659351 -0.9097935569 9.183549616e-41
0.2016959664 -2.10651859 -4.636550312 -0.4563324897 -0.1752556984 -0.8723795613 1.836709923e-40
0.102019553 -2.112125189 -4.573681852 -0.5226713137 -0.1937216408 -0.8302328732 3.673419846e-40
0.001765641831 -2.11869167 -4.497815647 0.5857481533 0.2117757406 0.7823363321 4.591774808e-40
-0.086906763 -2.120841291 -4.421913587 0.6441060853 0.226149448 0.7307419367 4.591774808e-40
3.087979923 0.7770258972 -3.05627758 0.1437028596 0.3556566433 -0.9235030267 4.591774808e-40
-5.097682118 1.093605734 -1.618736211 0.6232737342 -0.3470850726 0.7007580215 4.591774808e-40
2.98805331 0.778008491 -3.071283463 0.1507828784 0.35867734 -0.9212030663 1.010190458e-39
-4.820204083 4.31789597 -1.536808552 -0.4140319253 -0.0009667297696 -0.9102618471 9.183549616e-40
-3.770560735 6.617736301 -6.60782282 -0.4790915136 0.6306501908 0.6105339126 6.428484731e-40
1.529377695 7.686415334 -3.356577051 0.4589584774 0.5289099548 0.7138706996 3.673419846e-39
-0.7487096508 -2.104456316 -3.022704542 0.84244132 0.2822042438 0.4589699197 1.010190458e-39
-0.9030080845 -2.271652559 -2.716696626 -0.5319470678 -0.3461174802 -0.7728098129 0
-0.9898085646 -2.263173581 -2.681245485 0.4223423569 0.3509358115 0.8357457686 1.836709923e-40
-1.098724132 -2.276686959 -2.651300628 0.2898617883 0.3479611895 0.891573415 1.836709923e-40
-1.199785173 -2.276532966 -2.648367257 0.1961108606 0.3398471799 0.9198067322 5.510129769e-40
-1.299329407 -2.278359291 -2.653971969 0.1349828885 0.3299054965 0.9343136428 0
-1.396715708 -2.271283636 -2.663260411 0.1063529825 0.3200943226 0.9413971891 4.591774808e-40
-1.49449968 -2.263607117 -2.669856218 0.1010644122 0.3121872283 0.9446296201 5.510129769e-40
-1.592582906 -2.258982155 -2.669653887 0.1129435431 0.3122767764 0.943253397 1.836709923e-40
-1.691403918 -2.260032117 -2.65862065 0.1359301906 0.3210105264 0.9372700919 1.836709923e-40
-1.568844937 -2.215941842 -2.684071709 -0.1170051037 -0.2983845846 -0.9472467711 1.836709923e-40
-1.894271864 -2.276483 -2.59481364 -0.1740947275 -0.3595974954 -0.9167227864 2.755064885e-40
-1.997801751 -2.290808772 -2.552375322 -0.1724838608 -0.3864613589 -0.9060336284 1.836709923e-40
-2.098016343 -2.297738152 -2.5185853 0.150599845 0.4158149589 0.8968933084 1.836709923e-40
-2.19955705 -2.306895462 -2.491083401 0.115423087 0.4452050984 0.8879582937 1.836709923e-40
-2.297793601 -2.303581025 -2.482576071 -0.0716703965 -0.4711756501 -0.8791227792 0
-2.397082069 -2.298652048 -2.48548871 0.03331178042 0.491999484 0.869957949 0
-2.497094961 -2.296614125 -2.494872035 0.005844677104 0.5086146872 0.860974413 0
-2.597134057 -2.289403148 -2.511607716 -0.009973186008 0.5199598538 0.8541324756 0
-2.696409369 -2.288148217 -2.523832743 -0.01272618186 0.5275137718 0.8494511551 2.571393892e-39
-2.796490136 -2.280105277 -2.539110018 -0.006250651894 0.5313847574 0.8471075309 2.571393892e-39
-2.896073722 -2.277396741 -2.548449038 0.01047282274 0.5310620857 0.8472681872 2.571393892e-39
-2.995161962 -2.272852262 -2.554193469 0.03644552693 0.5263098643 0.8495114186 2.571393892e-39
-2.942890831 -2.20736311 -2.588980258 0.03019282239 0.5152742083 0.8564933647 2.571393892e-39
-3.194695919 -2.283348085 -2.540282981 0.1072952073 0.521743675 0.8463281137 2.571393892e-39
-3.29402959 -2.284616275 -2.527125137 0.1458870905 0.52039781 0.8413697618 2.571393892e-39
-3.396727962 -2.295836823 -2.5015604 0.1885600217 0.5292816394 0.8272279398 2.571393892e-39
-3.495991212 -2.297258559 -2.474138319 0.2308507456 0.5390774477 0.8100021226 2.571393892e-39
-3.596170978 -2.301027316 -2.436635987 -0.2767904135 -0.5551635496 -0.7843344314 2.571393892e-39
-3.693921901 -2.300149073 -2.395481922 -0.3186596438 -0.5709209261 -0.756640818 2.571393892e-39
-3.795391919 -2.308508301 -2.334107116 -0.362356417 -0.5962834395 -0.716340622 9.183549616e-41
-3.896619967 -2.317968911 -2.259341284 0.4058754357 0.6207250351 0.6707947238 9.183549616e-41
-3.992005887 -2.316371411 -2.188732002 -0.4374836878 -0.636262987 -0.6354348387 0
-4.090664662 -2.322692796 -2.098273624 -0.4612200413 -0.6536187592 -0.600048824 4.591774808e-40
-4.188042319 -2.326972145 -2.007021996 -0.4761285706 -0.6637902316 -0.5767877536 4.591774808e-40
-4.281658854 -2.319317578 -1.934487849 -0.4870516963 -0.6641303168 -0.5671962336 3.673419846e-40
-4.368203487 -2.316847345 -1.863529085 -0.490974465 -0.6651077547 -0.5626506459 2.755064885e-40
-4.504833818 -2.382388447 -1.657191053 -0.4934000956 -0.6876217919 -0.5326655771 2.755064885e-40
-4.584920037 -2.355593251 -1.635294667 -0.5081241144 -0.6776772663 -0.5315669357 2.755064885e-40
2.886481185 0.7762297697 -3.087924777 0.1577473677 0.3633218645 -0.9182118442 1.010190458e-39
2.78702401 0.7773895384 -3.104024163 0.1632388624 0.3644393628 -0.9168080632 1.010190458e-39
0.3205368983 8.167575984 -2.807746864 -0.5357644969 0.1983197309 -0.8207470306 3.306077862e-39
-1.532993312 6.546670573 -1.956741244 -0.4272391199 -0.1575075519 -0.8903134872 1.836709923e-40
-4.058096257 8.176754471 -6.616804483 0.6449444904 0.1452052401 0.7503079652 2.571393892e-39
-4.610138237 2.565893715 -1.710093732 -0.2486411162 -0.0755491404 -0.9656448222 3.673419846e-40
-5.229291628 2.699773902 -1.502904744 0.4227571289 0.1078231769 0.8998058526 3.673419846e-40
0.6608820204 6.925133716 -2.473716565 -0.03118969753 0.6674103431 0.7440367173 1.836709923e-40
0.4655086292 6.908727878 -2.450505778 0.06037120146 -0.6106868846 -0.7895675063 1.836709923e-40
0.2604475667 6.891918959 -2.442011304 -0.06829969978 0.5457181706 0.8351807166 1.836709923e-40
0.063251614 6.875786042 -2.447781358 -0.02521332455 0.4950281708 0.8685110237 1.836709923e-40
-0.2346221233 6.859120409 -2.433855796 -0.09002379532 -0.4239410681 -0.9012045756 1.836709923e-39
-0.4338721033 6.855763457 -2.410809879 0.1698883649 0.3653721711 0.9152273598 1.836709923e-39
1.135256847 8.542126036 -3.503937035 -0.6265363636 0.06184444521 -0.7769346495 9.183549616e-41
-0.8287025348 6.854795442 -2.323857515 0.3326026365 0.2288872418 0.9148694534 3.673419846e-40
-1.019672335 6.854610891 -2.243492207 0.4063901737 0.1520957937 0.9009516615 3.673419846e-40
-1.233168303 6.847984822 -2.132406536 0.450892392 0.07694493832 0.8892556029 3.673419846e-40
-1.332878167 6.846523193 -2.08116717 -0.4672940909 -0.04733891774 -0.8828336533 0
-2.279092049 5.245541641 -1.146870135 -0.01555802574 0.551545406 0.833999768 5.510129769e-40
-4.069247655 5.900847112 -5.970422257 -0.05644911331 0.8330008595 0.5503844708 7.346839693e-40
-4.363632002 2.01418018 -1.749002562 0.3641832783 -0.1624414363 0.9170514269 4.591774808e-40
0.5662602646 7.065452477 -2.563423301 0.02203117361 0.5613584643 0.8272794582 1.836709923e-39
-2.631331494 5.791281208 -1.230773238 0.4318690532 0.08073570706 0.8983155718 5.510129769e-40
-2.426567966 5.20769707 -1.105139891 -0.04310459441 0.4517041913 0.8911258708 5.510129769e-40
-3.622043658 3.447103668 -1.721610859 -0.1979647243 -0.1010025515 0.9749915141 0
0.8876423243 7.375473141 -2.810423213 0.2038704953 0.5322739121 0.821657656 3.673419846e-39
-3.815735335 1.576224389 -2.227370252 -0.4444135059 0.3834084152 -0.8096262242 9.183549616e-41
-3.564571921 1.578774047 -2.382906815 -0.4149466752 0.3872139159 -0.8233375007 9.183549616e-41
-1.541054056 6.993221137 -1.954098063 -0.5495671052 0.1107473364 -0.828076702 9.183549616e-40
-0.4334343598 6.709324317 -2.344506759 -0.1175917227 -0.4392511659 -0.890634942 1.836709923e-39
-5.814020731 2.387206772 -1.105787737 -0.6259985592 -0.2826082476 -0.7268138567 3.673419846e-40
-4.413360971 2.274849371 -1.724511958 -0.2718542031 0.02184369686 -0.9620905078 4.591774808e-40
0.3238179387 7.413735943 -2.73238408 0.1470768064 0.3192561284 0.9361858456 1.836709923e-39
-4.61321376 3.297673136 -1.745479167 -0.2080312714 0.06113110445 -0.9762100072 5.510129769e-40
2.685742765 0.7761739266 -3.12226826 0.1670597921 0.3658493487 -0.9155573603 1.836709923e-40
5.604315413 -2.067177766 -3.103359402 -0.6426696446 0.01753131712 0.7659428052 9.183549616e-41
5.500187041 -2.060886351 -3.187653206 -0.6127443921 0.0001164997313 0.7902811502 9.183549616e-41
5.39962841 -2.055056701 -3.262742385 -0.5879275704 -0.0133886154 0.8088027676 6.428484731e-40
5.290148654 -2.04903071 -3.33770063 0.5609715968 0.0251753343 -0.8274521558 1.836709923e-40
5.196314345 -2.044840759 -3.397000205 0.5393048498 0.03413190817 -0.8414186187 1.836709923e-40
5.09422229 -2.04084265 -3.456115861 -0.5144921205 -0.04490143968 0.8563187015 9.183549616e-41
5.000416722 -2.03727987 -3.505011897 -0.4935316495 -0.05479969498 0.8679997145 0
4.904819593 -2.034102769 -3.551480743 -0.4748385439 -0.0653621863 0.877642377 9.183549616e-41
4.808329556 -2.030658288 -3.596693125 -0.4599985623 -0.07460659415 0.8847797346 0
4.711027536 -2.027289067 -3.641092239 -0.447946915 -0.08260078907 0.8902363006 9.183549616e-41
4.604205219 -2.024353215 -3.690826828 -0.4382070401 -0.08649285612 0.8947030657 0
4.502861662 -2.021450938 -3.738437748 -0.432235365 -0.08491666308 0.8977537244 1.836709923e-40
4.406120453 -2.017832374 -3.784030037 -0.4280922049 -0.07957708287 0.9002247231 7.346839693e-40
4.30970508 -2.014171555 -3.829335248 -0.4250293134 -0.07135070649 0.9023630973 7.346839693e-40
4.207987092 -2.010783415 -3.877181549 0.4230258843 0.05993125971 -0.9041334776 9.183549616e-41
4.111022496 -2.007550047 -3.922705364 0.4233122297 0.04907042826 -0.9046539942 9.183549616e-41
4.01508781 -2.005656992 -3.968563415 0.425928914 0.03787234507 -0.9039636307 3.673419846e-40
3.91995553 -2.003151818 -4.016393794 -0.4298106739 -0.02659173423 0.9025273759 6.428484731e-40
3.821758462 -1.999755052 -4.069387517 0.4314956784 0.01507770367 -0.9019889924 3.673419846e-40
3.704906591 -1.993247029 -4.137290439 0.4262936423 0.003570692227 -0.9045777914 1.836709923e-40
3.589001142 -1.985670891 -4.204715758 0.4098416905 -0.004822441752 -0.9121439211 9.183549616e-41
3.489686163 -1.981641066 -4.255210904 0.3829886432 -0.01479140768 -0.9236346212 1.836709923e-40
3.396370634 -1.979856505 -4.295972355 0.3541545566 -0.0255247664 -0.9348385082 1.836709923e-40
3.299901387 -1.978784121 -4.33096166 -0.3228251332 0.03754452143 0.9457136682 2.755064885e-40
3.201364197 -1.977534115 -4.361096046 -0.2944400098 0.05052174082 0.9543336075 2.755064885e-40
3.10112803 -1.975828602 -4.387321461 0.2719501947 -0.06241903463 -0.9602848305 2.755064885e-40
3.000702336 -1.974098819 -4.41141279 0.2556544574 -0.07539250706 -0.9638240339 2.755064885e-40
2.899839918 -1.972529703 -4.433866071 0.2423517123 -0.08912608215 -0.9660860153 9.183549616e-41
2.641678594 -2.120953901 -4.453397629 0.2114273392 -0.1540888399 -0.9651710261 2.755064885e-40
2.700679621 -1.971040842 -4.475735672 0.2245371037 -0.1150778214 -0.9676467248 5.510129769e-40
