# .PCD v0.7 - Point Cloud Data file format
VERSION 0.7
FIELDS x y z normal_x normal_y normal_z rgb
SIZE 4 4 4 4 4 4 4
TYPE F F F F F F F
COUNT 1 1 1 1 1 1 1
WIDTH 515
HEIGHT 1
VIEWPOINT 0 0 0 1 0 0 0
POINTS 515
DATA ascii
1.00143985 8.869392816 -3.184173998 0.695871015 -0.299816169 0.6525900668 3.306077862e-39
-0.8865229632 2.184333133 -2.279441509 -0.0934712658 -0.6638880061 0.741967545 2.755064885e-40
0.5953890471 2.290773857 -2.196783314 -0.08224647113 0.7517375828 -0.6543134758 1.836709923e-40
0.8964837211 2.560615718 -1.879641835 0.1006366908 -0.8025115408 0.5880879895 2.755064885e-40
5.257888715 2.461147568 -1.21174369 0.5456653495 0.7324265641 -0.4071862652 0
0.1643293531 -2.935602691 -4.257254327 0.6181401865 0.3436289185 0.7069808174 9.183549616e-41
0.05308519279 -2.923430751 -4.152045986 0.6813146592 0.3344947964 0.6510941301 1.836709923e-40
-0.03234799921 -2.919755565 -4.058148175 0.7278697918 0.3227267401 0.6050231545 9.183549616e-41
-0.1195029494 -2.909873256 -3.954506306 0.7741921132 0.3103430409 0.5516464165 9.183549616e-41
-0.1988685166 -2.89786788 -3.846876101 0.8132038576 0.2996236367 0.4989240046 9.183549616e-41
-0.2685054193 -2.882954973 -3.735877047 0.8476918932 0.2914268418 0.4432706284 9.183549616e-41
-0.3211700367 -2.873828542 -3.631251473 0.872688482 0.2864419947 0.3954311535 9.183549616e-41
-0.3580616748 -2.87454899 -3.536561415 0.8885101693 0.2844372034 0.3600627117 9.183549616e-41
-0.3932927221 -2.868770709 -3.435270657 0.8994352789 0.2835821114 0.3325618214 9.183549616e-41
-0.4240135666 -2.864458712 -3.333009477 0.905218456 0.2836633221 0.316409018 4.591774808e-40
-0.4489334991 -2.867060489 -3.237545043 0.9054000539 0.2852126429 0.3144908438 4.591774808e-40
-0.4761649042 -2.864917589 -3.137946614 0.9002510865 0.2885977071 0.3259744541 2.755064885e-40
-0.5025428948 -2.867582515 -3.043139612 0.8903263071 0.2937000722 0.3479358195 2.755064885e-40
-0.5386244314 -2.858132429 -2.937286778 0.866844041 0.3072610283 0.3926475124 7.346839693e-40
-0.577165011 -2.8542049 -2.836768917 0.833565665 0.3256155866 0.4462541561 1.836709923e-40
-0.6168873259 -2.857050974 -2.744487635 0.7933129553 0.3449827313 0.5016387845 5.510129769e-40
-0.6708581981 -2.85368842 -2.64742543 0.7295847177 0.3712575067 0.5743465883 5.510129769e-40
-0.7307307101 -2.854949242 -2.562327714 -0.6519025239 -0.396096671 -0.6466301311 6.428484731e-40
5.159373765 2.573356723 -1.131707131 0.5354290768 0.7539427113 -0.380639057 0
4.052698582 0.7845425299 -2.997450178 -0.08905382058 -0.4589977176 0.8839629586 2.755064885e-40
4.748349386 0.7059061812 -2.920428964 0.3031976468 0.4891840243 -0.8177836984 9.183549616e-41
4.934151103 0.6557885127 -2.867830135 -0.3619506509 -0.4578487388 0.812013706 9.183549616e-41
5.724715334 0.3066197078 -2.510682268 0.5822347439 0.300793282 -0.7553317844 9.183549616e-41
5.418519229 -1.173740607 -3.141623806 0.5706767893 0.09409790512 -0.8157656443 2.755064885e-40
6.126139175 1.495055428 -1.366151679 0.7576564091 0.5147301801 -0.4012600247 1.836709923e-40
1.912955129 1.550627901 -3.018476852 0.06021339223 -0.5113146102 0.8572815855 1.836709923e-40
2.02245583 1.556749881 -3.022598621 0.01468925226 -0.5016194794 0.8649636546 1.836709923e-40
5.464588814 -0.3612950438 -2.986788931 -0.4899820892 -0.2630585935 0.8310942959 2.755064885e-40
-4.404854844 -2.575566945 -1.46824755 -0.5088416437 -0.7083881504 -0.4891486584 9.183549616e-41
-4.543373656 -2.556693374 -1.355789358 -0.5348719468 -0.7148459904 -0.4504522289 2.755064885e-40
-4.646544255 -2.545740816 -1.254944149 0.5604238097 0.7153993945 0.4172875027 0
-4.714717219 -2.5475144 -1.158961074 0.5844883967 0.7115091887 0.3900358811 1.836709923e-40
-4.811312466 -2.525040607 -1.049771717 0.6156487789 0.7035963337 0.3548644533 3.673419846e-40
-4.886714269 -2.506440586 -0.9438570335 0.6450943223 0.6929473695 0.3219895316 1.836709923e-40
-4.935726645 -2.503138669 -0.8437766621 0.6653263155 0.6843600204 0.2983156992 6.428484731e-40
-4.969994151 -2.510043159 -0.747795625 -0.6789279675 -0.6790301285 -0.2792398602 4.591774808e-40
-5.010601628 -2.510014729 -0.6488467732 -0.6895073232 -0.6765213607 -0.2586474428 2.755064885e-40
-5.050572331 -2.509768796 -0.5498491697 -0.6957397146 -0.6776009978 -0.2383340875 1.836709923e-40
-5.095479137 -2.502985507 -0.4481686657 -0.701038112 -0.6801405039 -0.214369915 1.836709923e-40
-5.132397767 -2.500609422 -0.3477318044 -0.705936878 -0.6833320034 -0.1863075344 1.836709923e-40
-1.810531904 0.8974043285 -2.972503375 -0.03107898664 0.2849066808 -0.9580512929 1.836709923e-40
-1.710490339 0.8981031205 -2.973510838 0.02425211823 -0.2756523633 0.9609514084 1.836709923e-40
-5.254775093 -2.456025869 -0.03885540555 0.7294463401 0.6775303368 0.09413118357 5.510129769e-40
-5.268914124 -2.456674111 0.06057084855 0.7363898929 0.6732689342 0.06662482905 5.510129769e-40
-5.28732 -2.449148038 0.1612315804 0.7449734316 0.6658889237 0.04008151167 3.673419846e-40
-5.297330017 -2.446267286 0.2604720729 0.7525267511 0.6584606374 0.01153594115 3.673419846e-40
-5.299749096 -2.447598395 0.3599923044 0.7563805994 0.6539255361 -0.01642504327 0
-5.299390499 -2.446988313 0.4594671486 0.7588891749 0.6494659764 -0.04776155142 0
-5.295647386 -2.443586485 0.5588224185 0.7598198155 0.6450578403 -0.08108162988 0
-5.28321786 -2.443457942 0.6580151605 0.7567877242 0.6436501072 -0.113959993 0
-4.508112048 -0.8745099308 -2.524173918 -0.4406490082 -0.004745642309 -0.8976669374 3.673419846e-40
-3.205236385 -0.54803762 -2.961008124 -0.3313152567 0.02619175785 -0.9431565048 1.836709923e-40
-3.100356845 -0.5431263258 -3.009298556 -0.3021502058 0.01270332189 -0.9531756809 9.183549616e-41
-3.001301998 -0.5402852035 -3.046641929 0.2567320219 -0.0003652358005 0.9664825583 9.183549616e-41
-2.902138998 -0.5376204042 -3.073291333 0.2007885719 0.009716635034 0.9795864109 9.183549616e-41
-2.801126292 -0.5356629246 -3.089376164 0.141644508 0.01796335353 0.9897545914 9.183549616e-41
-2.701987953 -0.5349177902 -3.095400279 0.09124083596 0.02351567594 0.9955511654 9.183549616e-41
-2.603903615 -0.5352365509 -3.094506847 0.05361527936 0.02719899465 0.9981911723 9.183549616e-41
-6.258387961 3.833950809 -0.3609221306 0.867709336 -0.2829465104 0.4086829828 3.673419846e-40
-5.375394212 5.34877324 -0.8809795936 0.7890598944 -0.305279002 0.533094001 4.591774808e-40
-5.036967493 5.618859355 -1.483138103 0.9789030184 -0.115358387 0.1686455545 5.510129769e-40
-6.45387869 5.356896654 0.8206189038 0.9465161492 -0.3086939604 0.09388939276 8.265194654e-40
-6.458836925 5.358669877 0.9192871933 0.9450632485 -0.3250645234 0.03447480234 8.265194654e-40
-4.57345304 5.747601034 -4.674623881 0.9549826763 0.1768754746 0.2381662329 3.673419846e-40
-4.454322917 5.75366381 -5.157977763 0.9234941267 0.1992410299 0.3278133767 3.673419846e-40
-4.424258982 5.756030244 -5.252738255 0.9047414595 0.2237283377 0.3624755473 3.673419846e-40
-5.004196929 7.476941336 -5.0409253 0.7701213428 0.4681109315 0.4333419817 1.19386145e-39
1.584430856 2.65341509 -1.992782556 0.1877461236 -0.7379419523 0.648223008 2.755064885e-40
-5.091012019 6.455472024 -2.583940067 0.9711298339 -0.1814299816 -0.1548870801 2.571393892e-39
-4.794596663 7.627509941 -5.31259024 0.7206386936 0.4380209416 0.5374174616 1.102025954e-39
-5.173697921 7.52296577 -4.911650562 0.8377522101 -0.4909868251 -0.2389627003 1.19386145e-39
-5.189700108 7.14820014 -3.988984679 0.9475087742 -0.2699993219 -0.1712527052 5.510129769e-40
-1.60976786 7.600948496 -1.588858488 -0.6704824445 0.6545551906 -0.3493004352 0
-4.020037685 7.716759099 -6.528852979 0.7247671619 0.1077162405 0.6805216914 3.214242366e-39
-5.153360988 7.640627925 -5.124449553 0.7148193035 -0.6195777127 -0.3242789251 1.19386145e-39
-4.526922273 7.286366277 -5.477697678 0.8764455694 0.1704302799 0.4503295277 1.285696946e-39
2.565948079 1.994179345 -2.698899622 0.08412662034 -0.5796935692 0.8104801525 6.428484731e-40
-5.183272835 7.006556744 -3.789949463 0.9797405759 -0.1536500913 -0.1284525337 5.510129769e-40
-4.32934858 -1.866342533 2.945047144 0.4475963748 0.4631062224 -0.7649771971 9.183549616e-41
-4.977395178 5.892841461 -2.485327383 0.9733379412 0.2131668394 0.08469445529 2.571393892e-39
-5.898189767 5.485792863 -0.1708833975 0.7386612692 -0.3915256595 0.5487141217 1.836709923e-40
-4.714706152 5.315928444 -3.285587259 0.7928505656 0.5920460074 0.1444628179 1.836709923e-40
-3.621489348 1.78040162 -2.230880793 0.4005085481 -0.4412270048 0.8030639035 0
-4.770014239 5.616283433 -3.676604834 0.9706737249 0.1924929294 0.1440103881 9.183549616e-41
-5.075944127 5.769774298 -1.086550798 0.8402690836 -0.5217368067 0.1474400613 5.510129769e-40
-4.452950882 6.298189355 -5.085335856 0.9362828335 0.155225053 0.3150867161 3.673419846e-40
-5.142986363 6.729006335 -3.287703354 0.9933405435 -0.07782139288 -0.08496114062 5.510129769e-40
0.1883095856 8.534780697 -2.447681055 -0.6688750889 0.6499381827 -0.3608136281 1.469367939e-39
-6.300376031 3.833811541 -0.261552407 0.8841748861 -0.2966183282 0.3609048879 0
0.2394698957 8.66007625 -2.265669071 -0.6733476744 0.7071125084 -0.2158583095 2.479558396e-39
0.9196128691 8.864065959 -3.094399085 0.6956902203 -0.3522386634 0.6260535452 3.306077862e-39
-1.790943451 2.2653273 -2.359108424 0.03307852738 0.4961501656 -0.8676063763 1.836709923e-40
1.050619276 2.32452953 -2.241641852 -0.1190993734 0.7505672275 -0.6499724426 4.591774808e-40
1.110239769 2.575153141 -1.895894986 0.1517167208 -0.7930749855 0.5899272024 0
4.998590871 2.573494698 -1.333559864 -0.4954392908 -0.7442995722 0.4478370863 0
0.06157012685 -2.778599904 -4.244388937 0.656873843 0.3484317544 0.6686643903 9.183549616e-41
-0.02321192843 -2.775818336 -4.151160893 0.7055446932 0.3419460316 0.6207089474 9.183549616e-41
-0.110098874 -2.766745793 -4.047776635 0.7532941205 0.3312604044 0.5681676799 9.183549616e-41
-0.1693415893 -2.770611996 -3.962657426 0.7846512303 0.3210961524 0.5303015253 1.836709923e-40
-0.245360614 -2.756346305 -3.851885283 0.8223623091 0.3084951801 0.478070033 1.836709923e-40
-0.3082590237 -2.744637021 -3.743421074 0.8526802625 0.2983958547 0.4288312999 1.836709923e-40
-0.3568225864 -2.739025988 -3.641875755 0.8736619524 0.2927222063 0.3886238578 9.183549616e-41
-0.3966170762 -2.73596752 -3.542351089 0.8887276377 0.2893374781 0.3555938832 9.183549616e-41
-0.4319926061 -2.730935498 -3.440645107 0.8988825143 0.288181884 0.3300930583 4.591774808e-40
-0.4635235999 -2.725599425 -3.338585667 0.9026673229 0.2897139252 0.3182099082 4.591774808e-40
-0.4911120649 -2.723652054 -3.239077819 0.9012392112 0.2924902585 0.3197144551 7.346839693e-40
-0.5184972592 -2.721899492 -3.140052961 0.8931066977 0.298349586 0.3366718744 1.836709923e-40
-0.5472563531 -2.720572765 -3.041631113 0.8767441199 0.3084851898 0.3689940864 1.469367939e-39
-0.5856927929 -2.711289298 -2.935536761 0.8458246056 0.3249366319 0.4230802782 4.591774808e-40
-0.6200347325 -2.716691676 -2.846823499 0.8137204172 0.338714508 0.4723680395 4.591774808e-40
-0.670137139 -2.713111085 -2.747443077 0.7557262802 0.3615425602 0.5460446563 1.836709923e-40
-0.7313444143 -2.711787159 -2.652807593 -0.6756792844 -0.3867489662 -0.6276007822 2.755064885e-40
2.920780722 0.8543184385 -3.066548447 -0.1612395725 -0.3285735323 0.9306133645 6.428484731e-40
3.592290302 3.02440629 -1.617528561 0.1731304508 0.8181689755 -0.5482931466 0
4.461769776 0.7616079789 -2.974602797 -0.203651003 -0.5067941019 0.8376670026 9.183549616e-41
-2.088569492 2.813567709 -1.933507786 0.08121584165 -0.7199425294 0.6892653636 9.183549616e-41
-1.662933548 2.822697855 -1.946078612 0.07900569137 0.7218976852 -0.6874749688 3.673419846e-40
-3.188223639 -5.848345128 -1.880041287 -0.3315317205 -0.028965173 -0.9429993303 1.836709923e-40
0.9086252735 1.467089429 -2.936554067 -0.004522863213 -0.5077398903 0.8614985476 1.836709923e-40
1.007530384 1.458866242 -2.931751043 3.373088218e-05 -0.5041097057 0.8636396259 1.836709923e-40
3.28451171 -0.5742003381 -4.180537773 0.3211233086 0.2531242835 -0.9125831019 3.673419846e-40
0.04482819496 0.02428909429 -3.426329832 -0.3398331926 0.5202048839 -0.7835178874 4.591774808e-40
-4.652101586 -2.386574166 -1.545885964 -0.5270774583 -0.6905580557 -0.4952968046 7.346839693e-40
-4.780954629 -2.370882146 -1.441905603 -0.5634085616 -0.6893630393 -0.4553563359 2.755064885e-40
-4.866923927 -2.36633471 -1.342064876 0.5942658707 0.6897235677 0.4136779848 2.755064885e-40
-4.921574945 -2.368620909 -1.244885569 0.6177286457 0.6893372844 0.3784513556 1.836709923e-40
-4.992502843 -2.350663638 -1.137275739 0.6479499527 0.6811898152 0.3407950916 1.836709923e-40
-5.02472503 -2.353034399 -1.040781659 0.6636208858 0.6785684483 0.3148843929 1.836709923e-40
-5.054598615 -2.356521047 -0.9439608376 0.6763784995 0.6747229856 0.2953997599 1.836709923e-40
-5.085342469 -2.360309413 -0.846141279 0.6861453771 0.6712816852 0.2803309127 6.428484731e-40
-5.124305528 -2.358366383 -0.7469951803 -0.693283922 -0.6696313639 -0.2663667394 6.428484731e-40
-5.177941616 -2.348086008 -0.6449895749 -0.7012803779 -0.6662075819 -0.2537189182 4.591774808e-40
-5.232473503 -2.338118639 -0.5425311608 0.709596239 0.6643820758 0.2346692035 4.591774808e-40
-5.285448775 -2.326199743 -0.4403318802 0.7207164493 0.6609330068 0.2091300079 2.755064885e-40
-5.334334078 -2.310817044 -0.3374150697 0.7354028185 0.6545945641 0.1751817661 2.755064885e-40
-5.353553516 -2.317813196 -0.2302421172 0.7464066748 0.6510538251 0.1378622236 1.836709923e-40
-5.375069126 -2.31162333 -0.1393625747 0.7583704219 0.6429801269 0.1070086895 1.836709923e-40
-5.387440545 -2.310639105 -0.03973136096 0.769614204 0.6339384925 0.07626247231 1.836709923e-40
-5.39718912 -2.307534936 0.06013469387 0.7807964611 0.62291977 0.04824776095 1.836709923e-40
-5.404871299 -2.303499869 0.1599752699 0.7909942942 0.6114223213 0.02215336713 1.836709923e-40
-5.407021425 -2.30395583 0.2593570826 0.7981016296 0.6025188364 -0.002200126687 1.836709923e-40
-5.407537617 -2.304080607 0.3590242553 0.8019999285 0.5967115086 -0.02704607433 5.510129769e-40
-5.405415807 -2.302254726 0.4588930622 0.8044148927 0.5916064425 -0.05402312093 0
-5.400589144 -2.298763871 0.5578604189 0.8034344316 0.589469929 -0.08377539554 0
-5.38862409 -2.298761725 0.657043059 0.7993963627 0.5898584833 -0.1141596473 0
-5.368535648 -2.30258382 0.7573050318 0.7917125192 0.5936375076 -0.1441728011 0
-5.337325477 -2.316117732 0.8520126825 0.7814032302 0.5998373684 -0.172058488 9.183549616e-41
-5.312840078 -2.309140907 0.9575173385 0.7736829909 0.602268378 -0.1966912057 9.183549616e-41
-5.273863116 -2.319163915 1.059756078 0.7625232593 0.6093672871 -0.2173241551 9.183549616e-41
3.796731746 -0.5874150761 -3.985411864 0.4006278861 0.2850281432 -0.8707791078 4.591774808e-40
-0.9999105254 -0.5166022497 -3.266120902 -0.2854373142 0.01980318079 -0.9581927644 3.673419846e-40
-1.097676458 -0.5170728389 -3.244211575 -0.263228391 -0.02116985793 -0.9645012448 4.591774808e-40
-1.199551464 -0.5186681706 -3.221576216 0.237574552 0.05604186665 0.9697513297 1.836709923e-40
-1.300299028 -0.5205293247 -3.19828391 0.2141560826 0.0801499406 0.9735056031 9.183549616e-41
-6.332081885 3.837197532 -0.1660909961 0.8947612955 -0.3110794214 0.3203620104 0
-4.794069675 5.193671517 -2.282105879 0.8388610124 0.5097388853 0.1909933789 4.591774808e-40
-6.465122045 5.223153065 1.316951472 0.9531503212 -0.2625981917 -0.1501554359 8.265194654e-40
-6.486556148 5.224760795 1.119060325 0.9711572389 -0.2315284721 -0.05699284082 8.265194654e-40
-6.457990018 5.358428481 1.018559561 0.9393897024 -0.3419244851 -0.02519193356 8.265194654e-40
-6.390256581 5.365529321 1.418481028 0.8781838056 -0.4247555097 -0.2199453583 8.265194654e-40
-6.360631117 5.361746118 1.515739547 0.857886393 -0.4423813134 -0.2613995223 8.265194654e-40
7.630132958 -3.01237541 -1.010001479 -0.1709545802 -0.5383491329 0.8251998198 9.183549616e-41
-6.358928372 3.839243244 -0.06849932223 0.9026073431 -0.3235957887 0.2838762929 0
-3.900631991 0.003739471267 -2.640167983 -0.3406600883 0.1397753218 -0.9297384383 0
-5.103301591 6.456368914 -3.084496189 0.982873134 0.1732099533 0.06291831588 5.510129769e-40
-6.379873944 3.843317298 0.02853303725 0.9085581359 -0.3328322637 0.2524773218 0
-5.162816544 7.154019116 -3.886659983 0.9095567062 -0.3581706321 -0.2107614684 5.510129769e-40
-1.651709813 7.604827803 -1.492330759 -0.6563953906 0.7162762616 -0.2368404702 0
-4.080348194 7.716137521 -6.435267101 0.7568837912 0.1106578063 0.6441131705 3.214242366e-39
-4.884580433 7.307318468 -4.963354911 0.7861418492 0.4218635813 0.4516769993 1.19386145e-39
-5.034011687 7.315965492 -4.862285377 0.8026928427 0.4526070608 0.388369732 1.19386145e-39
1.60304778 2.269729705 -2.386797232 0.07111851155 -0.6501837755 0.7564411513 9.183549616e-41
-5.195207168 7.004665389 -3.891080043 0.9946984985 -0.0599815374 -0.08352911007 5.510129769e-40
-6.399985549 3.84313065 0.1286739663 0.9138230064 -0.3371867098 0.2263462738 0
-4.948448602 5.86822952 -2.592598181 0.9660578353 0.2292133471 0.1191364782 3.673419846e-40
-5.974798704 5.488576189 -0.07394370767 0.7427392879 -0.4004684245 0.5366222053 8.265194654e-40
-6.022990753 5.354536909 -0.07151025465 0.7842708888 -0.2488056519 0.568344016 8.265194654e-40
-6.417926963 3.841878077 0.2295821243 0.9194356005 -0.3366007257 0.2033178005 0
-6.430324868 3.847166092 0.3269245775 0.9248769511 -0.3334730773 0.1827521053 0
-4.7797151 5.617658289 -3.576224873 0.9702854852 0.1955954785 0.1424376562 9.183549616e-41
-5.059672046 5.771214469 -1.186298358 0.8850155255 -0.4507467028 0.1165114997 5.510129769e-40
-4.479888804 6.29790157 -4.986475705 0.94265163 0.1538285561 0.2962172849 3.673419846e-40
-5.148544993 6.727467044 -3.389040997 0.9989031202 0.01151676607 -0.04538634771 5.510129769e-40
0.8532705645 8.724007674 -3.090594917 0.6872581881 -0.3173096512 0.6534453062 3.306077862e-39
-6.443600885 3.84834377 0.4267215395 0.9310949995 -0.3271408681 0.1613720989 0
-4.874248687 5.354738566 -2.173765528 0.9255462759 0.3438213242 0.158590631 4.591774808e-40
-5.110816784 6.450265202 -2.786875735 0.9975060814 -0.03450565738 -0.06157091256 5.510129769e-40
-2.882199526 2.397183923 -2.085992646 0.2248394661 -0.6059937035 0.7630326637 0
2.149812522 0.0002130763889 -4.183606834 0.0960065955 0.6959513272 -0.7116421037 5.510129769e-40
0.3750742489 2.54655197 -1.869753404 0.07087267133 -0.8142463348 0.5761770307 1.836709923e-40
0.07533177479 -2.637751192 -4.344224177 -0.6248184673 -0.343528858 -0.7011346566 1.836709923e-40
-0.02573483576 -2.628880564 -4.243174522 0.6839115884 0.345294432 0.6426793092 1.836709923e-40
-0.1127432728 -2.619937843 -4.141301995 0.7347332947 0.3418697388 0.5859113136 1.836709923e-40
-0.1875511181 -2.612398108 -4.040224284 0.7748340125 0.3334582694 0.5370640889 1.836709923e-40
-0.2516232027 -2.606807517 -3.940706694 0.8080900215 0.3238310279 0.4920609541 9.183549616e-41
-0.3027869216 -2.607907895 -3.847727608 0.8340932823 0.314122885 0.4534481332 9.183549616e-41
-0.3612390911 -2.594738633 -3.738111553 0.8600543137 0.3045570387 0.409330658 1.836709923e-40
-0.4009279904 -2.596966304 -3.644442009 0.8760429224 0.2991979188 0.3781922837 1.836709923e-40
-0.4399177426 -2.593423972 -3.54472094 0.8893161593 0.2955082813 0.3489865678 9.183549616e-41
-0.4746160132 -2.588836032 -3.443084643 0.8974295335 0.2944843928 0.328480098 7.346839693e-40
-0.5045342547 -2.587387456 -3.344546304 0.8997234167 0.2957071626 0.32102188 1.469367939e-39
-0.5369220422 -2.576846714 -3.237843659 0.8949883882 0.3006252734 0.3295758334 4.591774808e-40
-0.5653878495 -2.57501797 -3.139066085 0.8827952928 0.3083724019 0.3543711795 2.020380915e-39
-0.5957818438 -2.574220266 -3.041032366 0.8613332427 0.3197556342 0.394792831 8.265194654e-40
-0.6331891616 -2.570441022 -2.940971038 0.8268017701 0.3347089885 0.4520715938 8.265194654e-40
-0.6816134215 -2.564737987 -2.839212007 0.7735765676 0.3530172461 0.5262681046 2.755064885e-40
-0.7271129043 -2.572896253 -2.752698333 0.7146589462 0.3703402127 0.5933891787 2.755064885e-40
3.12090162 0.8309967774 -3.037727696 0.1465311093 0.3283375225 -0.9331254499 2.755064885e-40
3.021921646 0.8447353703 -3.051111906 0.1547362191 0.3277413209 -0.9320098331 1.836709923e-40
4.558239138 0.7462067358 -2.960381823 -0.2371484739 -0.5060870795 0.8292384876 9.183549616e-41
0.4765654654 1.234856331 -3.083145335 0.03850336233 -0.4553602716 0.8894742909 3.673419846e-40
0.1531180225 1.441354348 -2.899068992 -0.1267352294 0.5696357838 -0.8120672728 3.673419846e-40
0.2763723445 1.455006594 -2.915970568 -0.1135311974 0.566164622 -0.8164363343 1.836709923e-40
0.3862445476 1.465410105 -2.928541924 -0.09480915459 0.5586146482 -0.8239908368 9.183549616e-41
4.435787832 2.912338071 -1.295565233 0.391482797 0.7998853554 -0.4548896986 0
4.527711938 2.884676089 -1.264558 0.4102068144 0.795847935 -0.4453722417 0
4.268019026 1.806385051 -2.504823946 0.3411946246 0.4033825836 -0.8490398809 2.755064885e-40
-4.751181816 -2.244354258 -1.647703235 -0.5634454207 -0.6168992052 -0.5495130831 0
-4.870628141 -2.233691086 -1.546199921 -0.6011139192 -0.6120790629 -0.5138300079 1.836709923e-40
-4.967929471 -2.226165829 -1.446800741 -0.6358044528 -0.6128000345 -0.4692854308 7.346839693e-40
-5.048941532 -2.217023719 -1.343801513 -0.6666745194 -0.6144262785 -0.4219306027 1.836709923e-40
-5.118173785 -2.199082314 -1.240635913 0.6945233046 0.6134183131 0.3759725422 9.183549616e-41
-5.165790075 -2.192024243 -1.134349905 0.7135790843 0.6143958932 0.3366341885 1.836709923e-40
-5.188936281 -2.200073879 -1.039869806 0.7185181192 0.6221114225 0.3109808522 1.836709923e-40
-5.191975806 -2.225473253 -0.9503760061 0.7156230807 0.6340261527 0.2930775394 1.836709923e-40
-5.221769919 -2.228051532 -0.8532163749 0.7199510229 0.6349908941 0.2801019263 6.428484731e-40
-5.279901959 -2.209640099 -0.7477853848 0.7284266299 0.6295707508 0.2702504664 6.428484731e-40
-5.346345983 -2.187798357 -0.641850729 0.7403445821 0.6211894878 0.2569309634 6.428484731e-40
-5.397762932 -2.177096813 -0.5394625343 0.7524439773 0.6153218491 0.2349618755 6.428484731e-40
-5.435220652 -2.173382075 -0.4386419839 0.7652583146 0.6112140384 0.2019829478 4.591774808e-40
-5.461138823 -2.172652259 -0.3398812525 0.7771993287 0.6074039669 0.1643825551 4.591774808e-40
-5.482023883 -2.168047203 -0.2397427196 0.7898536543 0.6005625488 0.1243214772 4.591774808e-40
-5.492786654 -2.166000863 -0.1399045074 0.7998150589 0.5939332219 0.08682856355 2.755064885e-40
-5.495292008 -2.166897862 -0.04055085774 0.8074236859 0.5873733112 0.05531351256 2.755064885e-40
-5.49096384 -2.173006666 0.05895661855 0.8128159911 0.5817913219 0.02913798823 2.755064885e-40
-5.490269385 -2.171526342 0.1588665865 0.8182883225 0.5747712248 0.006500797298 1.836709923e-40
-5.488523292 -2.170257037 0.258918052 0.8222813687 0.5689120103 -0.01387354093 1.836709923e-40
-5.486572092 -2.168579682 0.3588849389 0.823933383 0.5656229756 -0.03470489666 1.836709923e-40
-5.479937228 -2.171993879 0.4589244697 0.823388865 0.5646345046 -0.05673317513 0
-5.471478038 -2.174439018 0.5593143544 0.8201686659 0.5661028342 -0.08277040885 0
-5.460314546 -2.175576506 0.6596119496 0.8151095919 0.5688277957 -0.1096872468 0
-5.449480548 -2.168948168 0.7579310068 0.8090529688 0.5713497098 -0.1378143779 0
-5.424001812 -2.177017607 0.8600166863 0.8008637769 0.5754135926 -0.1658807052 0
-5.394101787 -2.184191321 0.9619236868 0.7923363652 0.5792774024 -0.1914178031 0
-5.36217154 -2.189956402 1.063249443 0.7838982936 0.5836646558 -0.2117522962 9.183549616e-41
-5.324089128 -2.199987819 1.166437388 0.7754536486 0.588304357 -0.2292806629 9.183549616e-41
3.890120659 -0.5939061626 -3.945811468 0.4182426315 0.2903352155 -0.8606849388 2.755064885e-40
0.6890267259 0.9311939587 -3.192151476 -0.007023249112 -0.3352493821 0.9421032458 3.673419846e-40
0.7890015588 0.9256766851 -3.187236202 -0.008307302738 -0.3401102462 0.9403488763 5.510129769e-40
0.8890728723 0.9281294461 -3.180821814 -0.003053370354 -0.347792798 0.9375664492 4.591774808e-40
-2.93808117 -2.660816596 2.86131483 0.142279776 0.6466023091 -0.7494410712 1.836709923e-40
-6.45550847 3.849282651 0.5264256448 0.9372309401 -0.3198304092 0.1389484592 0
-4.713580438 5.176933308 -2.686304056 0.757688449 0.6249637796 0.1879587412 4.591774808e-40
-4.735936085 5.179882145 -2.585668492 0.780909518 0.5970589837 0.183578034 4.591774808e-40
-6.48985272 5.225424229 1.019632251 0.9758870718 -0.2182451131 -0.003673373038 8.265194654e-40
-6.440606284 5.223076817 0.62154044 0.9564950669 -0.1553200185 0.2469673638 8.265194654e-40
-6.409770529 5.223621107 0.5206251794 0.9387661753 -0.1436168491 0.3131968531 8.265194654e-40
-6.467599152 3.846576036 0.627960962 0.9431394462 -0.3123080093 0.113805502 7.346839693e-40
-6.47342198 3.852901127 0.7258339305 0.9482432074 -0.3058452164 0.08540212664 7.346839693e-40
-2.036905248 7.324453967 -1.19302095 0.6808689776 -0.7246906578 0.1060230439 0
-6.47986511 3.851962522 0.8266137242 0.9515752956 -0.3029196535 0.05238454212 7.346839693e-40
-4.832843497 6.431090573 -3.796093747 0.8819895463 0.3998314487 0.249457918 5.510129769e-40
-4.563200332 6.440441131 -4.68720176 0.9505853004 0.1918411957 0.2440994515 4.591774808e-40
-1.562536587 2.909074798 -1.837966993 -0.1228427175 -0.7696656412 0.6265177312 9.183549616e-41
-4.138970992 7.715418668 -6.339929338 0.7850857724 0.1132554697 0.6089446022 2.938735877e-39
-6.481855373 3.852889222 0.9267263465 0.9527508034 -0.3032922965 0.01672391812 7.346839693e-40
-3.601766356 7.855271186 -6.930922115 0.5199330867 0.0546227671 0.8524587607 3.214242366e-39
-6.47884423 3.856303218 1.027083339 0.9519679561 -0.3055154581 -0.02042829813 7.346839693e-40
-4.016937228 8.006353596 -6.605952532 0.6798149184 0.1348192374 0.720885185 3.214242366e-39
-5.20055016 7.004864832 -3.990861854 0.9986904126 0.0414509905 -0.02998791667 5.510129769e-40
-5.061109399 6.315558894 -2.283417131 0.9619871185 -0.1972521831 -0.1888712794 2.571393892e-39
-4.923004754 5.865714227 -2.701176589 0.9603068436 0.2367561006 0.1475036102 3.673419846e-40
-6.051294092 5.491675992 0.02343894717 0.7514538027 -0.4103551677 0.5166486415 8.265194654e-40
-6.473231673 3.85532846 1.127362847 0.948843846 -0.3108055931 -0.05563487372 7.346839693e-40
-4.620027243 5.34721701 -4.173857101 0.6658360111 0.719423739 0.1977166916 1.836709923e-40
-4.786670114 5.619468379 -3.475727965 0.9690127879 0.2018538737 0.1423700479 9.183549616e-41
-5.049155619 5.764215079 -1.28453638 0.9247696856 -0.3672882512 0.09950059828 5.510129769e-40
-4.505416436 6.297693427 -4.887200125 0.9482187181 0.1552196232 0.2771067146 3.673419846e-40
-4.961300205 6.715864335 -4.093830637 0.8598122515 0.4450293976 0.2503432192 5.510129769e-40
0.7611243013 8.716693384 -2.99883979 0.6894173148 -0.367949444 0.6239527007 3.306077862e-39
-4.180134768 6.866423635 -6.065434287 0.8462166614 0.1588753545 0.5086019895 9.183549616e-41
-3.007453717 2.577595431 -1.872303632 0.1483848477 -0.5666534917 0.8104848903 0
0.489941983 2.286217566 -2.191718762 -0.07423615109 0.746740097 -0.6609600755 1.836709923e-40
-1.180298209 -4.787212166 -2.528531043 -0.4224916316 0.8317786238 -0.3600626921 4.591774808e-40
0.1500292544 2.536052216 -1.851066646 0.06333272848 -0.824362932 0.5625075304 1.836709923e-40
6.36379674 0.7393025409 -1.75593966 0.7748540403 0.3642100581 -0.5166742202 1.836709923e-40
-0.01264260066 -2.488348528 -4.343548079 -0.6520061679 -0.3258084327 -0.6846435731 2.755064885e-40
-0.1108100284 -2.477553231 -4.240170881 0.7102078532 0.3311917966 0.6212220208 2.755064885e-40
-0.1822983431 -2.475570382 -4.146275093 0.7528427381 0.3319116324 0.5683858548 1.836709923e-40
-0.2536887486 -2.466836143 -4.04242196 0.7913709378 0.3266524685 0.5167496528 1.836709923e-40
-0.3098892386 -2.465041971 -3.944327437 0.8203925369 0.319805461 0.4740048021 1.836709923e-40
-0.3616574415 -2.459735839 -3.845451663 0.8452322852 0.3124214553 0.4335610895 1.836709923e-40
-0.4129594547 -2.449633581 -3.73937649 0.8668808346 0.305068016 0.3942729058 9.183549616e-41
-0.4541604448 -2.4469057 -3.640794735 0.8814205111 0.3003025464 0.3645768277 9.183549616e-41
-0.4891455248 -2.447551848 -3.544554581 0.89135574 0.2972044137 0.342278368 7.346839693e-40
-0.5233790148 -2.442677877 -3.442675677 0.8974232695 0.2964125858 0.3267584036 4.591774808e-40
-0.5525228015 -2.441919517 -3.343956599 0.8970843891 0.2983153738 0.3259563415 2.020380915e-39
-0.5832652054 -2.43539683 -3.24154618 0.8896289471 0.3029962842 0.3416922419 5.510129769e-40
-0.6147430343 -2.429330635 -3.138950468 0.871813143 0.3117856697 0.3777982794 5.510129769e-40
-0.6470609149 -2.429102467 -3.04185712 0.84573556 0.3219229468 0.425554907 5.510129769e-40
-0.687055588 -2.426966993 -2.941510972 0.8020720245 0.336189933 0.4936160415 5.510129769e-40
-0.7370023373 -2.428828287 -2.840170492 0.7378161444 0.353884028 0.5747986011 0
2.352348609 -0.119804312 -4.258621114 0.1600870298 0.5912109587 -0.7904693196 5.510129769e-40
5.448411892 -1.019664402 -3.105520102 -0.5543128742 -0.09903604819 0.8263952436 2.755064885e-40
5.370973144 -0.9794358157 -3.158737717 -0.5453879954 -0.1178497834 0.8298574354 2.755064885e-40
0.3742151723 1.219089779 -3.086875596 0.06120984044 -0.4591931347 0.8862251523 9.183549616e-41
0.05338391791 1.427595395 -2.886123444 -0.1314095754 0.5682017715 -0.8123289176 3.673419846e-40
-2.086064646 1.598878287 -2.661678009 0.01498517612 -0.416102447 0.9091942576 1.836709923e-40
4.539279374 2.808405604 -1.384273491 0.4080844292 0.7824057568 -0.4704341934 0
3.308433273 2.803163816 -1.970626197 -0.03796775224 -0.7770575465 0.6282833908 2.755064885e-40
4.618740113 2.855302238 -1.232536839 0.4290340906 0.7916499168 -0.4349944348 0
3.108025684 0.2004919503 -3.594065999 -0.2152651393 -0.7972630978 0.5639436786 1.836709923e-40
0.9461150947 2.227730545 -2.338470486 -0.1043590825 0.7300954543 -0.6753294082 4.591774808e-40
-4.899907942 -2.098520673 -1.650472682 0.6281285528 0.5261921767 0.5732157659 1.836709923e-40
-5.007151743 -2.089077348 -1.54942301 0.663693082 0.5227788188 0.5349895322 1.836709923e-40
-5.100697816 -2.079274155 -1.447507531 0.6982695195 0.5226374505 0.4891520965 1.836709923e-40
-5.183624088 -2.062546033 -1.338912708 0.730737345 0.5235207975 0.4381197408 1.836709923e-40
-5.246233606 -2.047120638 -1.234571011 0.7545181001 0.526463978 0.3918394015 1.836709923e-40
-5.285232754 -2.048353723 -1.134650483 0.7662528007 0.5369545775 0.3528971905 9.183549616e-41
-5.306030264 -2.062531893 -1.044078069 0.7665937443 0.5530801746 0.3262458454 1.836709923e-40
-5.325570889 -2.076971316 -0.9522267376 0.7651858393 0.5661871673 0.3064681434 9.183549616e-41
-5.363321397 -2.074816601 -0.8524616004 0.7683307316 0.5689098688 0.2932736742 1.836709923e-40
-5.425039893 -2.051307113 -0.7438730262 0.7798989667 0.5591169157 0.2813287691 1.836709923e-40
-5.481287081 -2.033890998 -0.6397316206 0.7913806047 0.5513409771 0.2640830655 6.428484731e-40
-5.519152688 -2.032428532 -0.5396736467 0.8002765118 0.5509475403 0.23667343 6.428484731e-40
-5.547892559 -2.033161019 -0.4409051216 0.8088354863 0.5525759603 0.2011093341 6.428484731e-40
-5.562056868 -2.042451012 -0.3437716343 0.8150706601 0.5566139103 0.1607506575 6.428484731e-40
-5.575387671 -2.041708994 -0.2431565837 0.8215989426 0.5576452567 0.1183509404 6.428484731e-40
-5.583288179 -2.037561386 -0.1421570931 0.8273160398 0.5561432539 0.07907497339 4.591774808e-40
-5.578817815 -2.043050967 -0.04265512513 0.8293601418 0.5567068851 0.04732017865 4.591774808e-40
-5.56796278 -2.052612123 0.05780613088 0.8300669323 0.5572618266 0.02116942412 4.591774808e-40
-5.560741185 -2.055958116 0.158400981 0.8311417579 0.5560605839 -7.304319014e-05 4.591774808e-40
-5.557172898 -2.053160356 0.2588047697 0.831772834 0.5547861696 -0.01913788351 2.755064885e-40
-5.553820731 -2.051214702 0.3593573787 0.8309425814 0.5552099022 -0.03572661274 2.755064885e-40
-5.550714419 -2.048043623 0.4595590071 0.828632857 0.5571172475 -0.05466224329 4.591774808e-40
-5.542900526 -2.051743083 0.5606685399 0.8246452143 0.560300217 -0.07761402801 0
-5.529119611 -2.059157184 0.6623972049 0.819433139 0.563608461 -0.1042824694 0
-5.520248939 -2.0535125 0.7626147556 0.8129783578 0.56728803 -0.1313410853 0
-5.50402988 -2.051363965 0.8630160828 0.806606142 0.5693192294 -0.1589407018 0
-5.475914127 -2.059042396 0.9657164662 0.7994342463 0.5714814815 -0.1852398503 0
-5.454329078 -2.05338074 1.064262911 0.794037772 0.5718893627 -0.2060256623 0
-5.42234275 -2.05813047 1.165596283 0.7884913821 0.5733217153 -0.2226736426 0
2.89632474 -0.5694153221 -4.291846093 -0.2961015577 -0.2710708123 0.9158845354 5.510129769e-40
-3.313891936 1.731099158 -2.414685909 0.3392803007 -0.4373411515 0.8328394772 0
1.03638387 8.210103892 -3.27474653 -0.5747536612 -0.1190027817 -0.8096274247 3.673419846e-40
-3.617742719 2.289354667 -1.893972515 -0.2331242674 0.3956377476 -0.8883264313 0
0.2087966251 -5.84529991 4.500631843 -0.0298458963 -0.425000227 0.9047010719 5.510129769e-40
-6.46228574 3.85556205 1.22765151 0.944398548 -0.3169792079 -0.0873817155 7.346839693e-40
-6.436182776 4.952704314 1.61620229 0.9727854034 -0.07599515895 -0.2188910568 3.673419846e-40
-6.455945176 4.95308784 1.518700768 0.9806598626 -0.05730529113 -0.1871425593 8.265194654e-40
-4.756790923 5.183846651 -2.48476121 0.8019850284 0.5691536006 0.1813399931 4.591774808e-40
-4.808415312 5.193035434 -2.182901495 0.8527461282 0.4800739694 0.2057985051 4.591774808e-40
-4.829354902 5.201964496 -2.078978608 0.8721245368 0.4340907019 0.2257521979 4.591774808e-40
-6.207683754 5.217538726 0.142616003 0.8404760344 -0.1171741422 0.5290276514 8.265194654e-40
-5.779836448 5.2188118 -0.3876710311 0.7995564441 -0.1930966381 0.5687030694 1.836709923e-40
-4.978193829 7.641305127 -5.21465371 0.7211865925 0.4966899719 0.4828964388 1.19386145e-39
-4.32002749 5.900236621 -5.536953394 0.8666259872 0.2443119105 0.4350529724 3.673419846e-40
-4.284062541 6.035821658 -5.642095609 0.8779333223 0.2177847538 0.4263834925 3.673419846e-40
-4.47703172 6.021594908 -4.977281741 0.9492285142 0.1206600466 0.2905277628 3.673419846e-40
-4.164326838 6.449256652 -6.048530495 0.8478860514 0.1948346761 0.4930808177 9.183549616e-41
-4.204077886 7.716532151 -6.239310146 0.806798342 0.123470667 0.5777814723 3.122406869e-39
-6.447729789 3.855060068 1.3275253 0.9396846743 -0.3226088925 -0.113649529 7.346839693e-40
-1.800785139 2.137238464 -2.417485751 -0.02316390677 -0.4645071381 0.8852663735 1.836709923e-40
-6.428696816 3.857332373 1.428231036 0.9366331748 -0.3247466966 -0.1313692466 6.428484731e-40
-6.412581663 3.851744469 1.525815767 0.9349780915 -0.3257105067 -0.140458657 6.428484731e-40
-4.522201125 7.003405244 -5.287306529 0.9088120594 0.1973006832 0.3676045172 1.285696946e-39
-4.277607186 6.170116898 -5.653362555 0.8923393567 0.1949592721 0.4070888782 3.673419846e-40
-4.754874988 5.881352836 -3.4934595 0.9743223382 0.1321875175 0.182270243 4.591774808e-40
-6.312875137 5.484719601 0.4272015652 0.8419595991 -0.4238084359 0.3339018465 8.265194654e-40
-5.704582229 5.34725555 -0.468268373 0.7716370678 -0.2755899775 0.5732594525 5.510129769e-40
-4.567662417 5.344882576 -4.374998711 0.5827275579 0.7865254898 0.2044657604 3.673419846e-40
-4.594368162 5.345296536 -4.27284646 0.629986941 0.7490534894 0.2050251794 1.836709923e-40
-4.794339974 5.621303468 -3.374717804 0.9667711626 0.2090233908 0.1471826799 9.183549616e-41
-5.038752199 5.760153903 -1.383458433 0.955059039 -0.28492796 0.0817208029 5.510129769e-40
-4.550325309 6.297708441 -4.689152695 0.9570671081 0.1534194212 0.2459370484 3.673419846e-40
-4.890206339 6.70909359 -4.198588787 0.850864054 0.4454069523 0.2786449504 5.510129769e-40
-6.276424615 4.406896126 2.323274967 0.9903972044 -0.1001884333 -0.09526623397 3.673419846e-40
-6.420292251 4.401554876 1.023783894 0.9988806203 0.04686179973 -0.006440352691 8.265194654e-40
4.948817192 0.9818063308 -2.619931069 -0.3211637526 -0.5065629811 0.8001548539 3.673419846e-40
0.03974621245 2.529770819 -1.842447432 0.05037911114 -0.8274874548 0.5592195073 2.755064885e-40
6.436418358 0.6716469245 -1.683165976 0.7966453876 0.3495695556 -0.493109777 1.836709923e-40
2.678621986 2.009915161 -2.714916737 -0.07943125605 0.5644263628 -0.8216529416 6.428484731e-40
-0.08207064986 -2.34351731 -4.350196039 0.66903083 0.2952766767 0.6820626311 2.755064885e-40
-0.172911261 -2.336713497 -4.250833891 0.7261096662 0.3051689404 0.6161466307 2.755064885e-40
-0.249739245 -2.330355564 -4.149265215 0.7712725711 0.3087473898 0.5566090821 2.755064885e-40
-0.3138567484 -2.324785713 -4.048647913 0.8059403425 0.3075151582 0.5058602493 2.755064885e-40
-0.3720023672 -2.316729895 -3.944669253 0.8351382613 0.3030669014 0.4590147468 2.755064885e-40
-0.4132493003 -2.322424768 -3.852410465 0.8551103829 0.2997029538 0.4230418095 1.836709923e-40
-0.4638459147 -2.309588667 -3.745496135 0.8752057649 0.2927706619 0.3850976611 1.836709923e-40
-0.5069770825 -2.301443794 -3.643148843 0.8882633838 0.2889708931 0.3570489938 7.346839693e-40
-0.543342087 -2.29869794 -3.541897538 0.8965970131 0.2871499596 0.337133055 5.510129769e-40
-0.5746789312 -2.297535345 -3.443373678 0.9003751864 0.2864716333 0.3275034764 5.510129769e-40
-0.6052343307 -2.291677526 -3.34077116 0.8966122559 0.2892281095 0.3353111439 2.755064885e-40
-0.6330956061 -2.289678775 -3.241544005 0.885750632 0.2944602758 0.3588021234 5.510129769e-40
-0.6650277989 -2.284003384 -3.138649561 0.862768015 0.303266282 0.404550262 5.510129769e-40
-0.7010089201 -2.279406714 -3.037232347 0.8259451244 0.3144714417 0.4678914017 9.183549616e-41
-0.7395597846 -2.281522664 -2.943287552 0.7783645388 0.3268812387 0.5360012131 2.755064885e-40
4.065590939 -0.2865533718 -3.667318679 0.4321281486 0.5043287114 -0.7476080618 4.591774808e-40
2.687931629 1.323128196 -2.99292641 0.1451914132 0.2836298786 -0.9478784445 1.836709923e-40
-0.2488773922 2.075534204 -2.368405284 -0.001101393679 0.6759567936 -0.7369404319 9.183549616e-41
4.420931573 -0.4287971054 -3.521285846 0.4481276706 0.4055981646 -0.7966628645 1.836709923e-40
4.332972805 -0.3962553545 -3.558415755 0.4504981816 0.4291178653 -0.7828852062 9.183549616e-41
-2.181106014 1.609414909 -2.662776534 0.01736835268 -0.4100201565 0.9119110766 1.836709923e-40
3.01283839 2.036000927 -2.74273987 -0.01685742638 -0.5291341264 0.8483707347 2.755064885e-40
3.21348387 2.023176196 -2.732843899 0.1057224547 0.5078268225 -0.8549471802 2.755064885e-40
3.314028309 2.011924381 -2.718858227 0.145859372 0.4966894569 -0.8555843775 2.755064885e-40
2.348033483 2.976767634 -1.752411903 -0.0182038183 -0.7664593871 0.6420347567 4.591774808e-40
2.467225055 0.6024606988 -3.230522177 0.1321561009 0.5115302104 -0.8490415825 1.836709923e-40
2.911449627 0.2299840552 -3.625181655 -0.192998048 -0.8096994638 0.5542008046 7.346839693e-40
-4.999834805 -1.955655187 -1.654077578 0.672670172 0.4513747007 0.586323903 1.836709923e-40
-5.110793319 -1.940302091 -1.545703296 0.7090651805 0.4458073893 0.5463353745 1.836709923e-40
-5.194421962 -1.933362691 -1.445665793 0.7405657579 0.4465408744 0.5021589447 1.836709923e-40
-5.269090309 -1.921389472 -1.338496031 0.7680816812 0.4517368123 0.4538550246 1.836709923e-40
-5.32489405 -1.913407675 -1.236574463 0.7880202479 0.4592656398 0.4099989768 1.836709923e-40
-5.370878781 -1.906539172 -1.13802716 0.8019772762 0.4667030901 0.3728547628 1.836709923e-40
-5.404728243 -1.912462755 -1.041042327 0.8076565067 0.478687738 0.3443094782 9.183549616e-41
-5.438214004 -1.916268586 -0.9450119573 0.8108935916 0.4871648252 0.3242252552 1.836709923e-40
-5.477343494 -1.914767418 -0.8458785939 0.8147876263 0.4902574538 0.3094652696 9.183549616e-41
-5.530120666 -1.897386115 -0.7388361201 0.8239851088 0.4845704071 0.2936665815 9.183549616e-41
-5.573990215 -1.890683675 -0.6381197228 0.831814657 0.4831288095 0.2732598212 9.183549616e-41
-5.611119677 -1.888197225 -0.539061874 0.8388816367 0.4859473555 0.2452198347 1.836709923e-40
-5.643870447 -1.883267356 -0.438692911 0.8470998373 0.4887794181 0.2086061986 1.836709923e-40
-5.664540727 -1.884328948 -0.3420033191 0.8518009188 0.4962173037 0.1679392217 1.836709923e-40
-5.677895141 -1.884977858 -0.2423083052 0.8537886629 0.5053654205 0.1251028009 6.428484731e-40
-5.685940338 -1.882521156 -0.1415142903 0.8538917007 0.513411667 0.08530781705 6.428484731e-40
-5.678378907 -1.89352088 -0.04290200691 0.8507801911 0.5229841597 0.05158134531 6.428484731e-40
-5.663379318 -1.909149406 0.05680076857 0.8457658323 0.5330125799 0.02403636052 6.428484731e-40
-5.65512203 -1.912107264 0.157463528 0.8427828592 0.5382442364 0.003192842059 6.428484731e-40
-5.643206563 -1.921611007 0.258108843 0.8387845439 0.5442988011 -0.01339044751 6.428484731e-40
-5.640199575 -1.919295519 0.358980004 0.8356991287 0.5484103149 -0.029207753 6.428484731e-40
-5.63801046 -1.917895511 0.4595324966 0.8316223772 0.5533203013 -0.04733778551 6.428484731e-40
-5.640395856 -1.910242041 0.5597127277 0.827208256 0.5577752648 -0.06792094796 1.836709923e-40
-5.641384934 -1.901708694 0.6594928364 0.8223517256 0.5613968647 -0.09258077375 0
-5.63041279 -1.903343308 0.7595234618 0.8169019965 0.563866414 -0.1213498879 0
-5.620979867 -1.895977984 0.8589557588 0.8115632067 0.5644952103 -0.150699433 0
-5.592575959 -1.904532981 0.9611252188 0.8058950961 0.5643877761 -0.1788841307 0
-4.109918075 -0.7174424696 -2.658849812 0.3431669006 -0.06962292708 0.9366905179 3.673419846e-40
-2.404423741 -0.6841584659 -3.081923088 -0.01294887272 -0.05263246218 -0.9985299949 9.183549616e-41
-2.304113733 -0.6819542706 -3.079597906 -0.008941131044 -0.05520130851 -0.9984352116 9.183549616e-41
-2.204906009 -0.6808608856 -3.079060834 0.01250447638 0.06070386337 0.9980774915 9.183549616e-41
-2.104875658 -0.6787026805 -3.080387423 0.0217805817 0.06893260763 0.997383528 9.183549616e-41
-2.004199906 -0.676811998 -3.083080868 0.03463687168 0.08078977142 0.9961291583 9.183549616e-41
-4.120571092 3.884830992 -1.730959704 -0.005404886294 -0.09005515225 0.9959221138 1.836709923e-40
-6.394399828 3.849616659 1.624742353 0.935745744 -0.3228088958 -0.1420363314 6.428484731e-40
-6.462806262 5.225269264 0.7189701073 0.9682401085 -0.1732685764 0.1802473099 8.265194654e-40
-4.900927264 8.240066412 -5.859556509 0.4838386711 0.5774916317 0.6575739925 3.306077862e-39
-6.471561277 4.953524777 1.421401612 0.9871030759 -0.04419918517 -0.1538634124 8.265194654e-40
-6.484789463 4.95341195 1.322817434 0.992044391 -0.03974681329 -0.1194492239 8.265194654e-40
-6.494810492 4.952938737 1.222812455 0.9962549833 -0.03414515426 -0.07943624238 8.265194654e-40
-5.537427386 5.067400909 -0.7607272103 0.798597535 -0.2017053413 0.5670599019 3.673419846e-40
-5.598704694 5.071954399 -0.6700680738 0.8050883972 -0.1959584769 0.5598508265 3.673419846e-40
-5.707333252 5.217489801 -0.4874989806 0.7972887705 -0.2083445864 0.5665007941 1.836709923e-40
-6.377158958 3.848168487 1.723907506 0.9389563116 -0.3158577467 -0.1363632239 6.428484731e-40
-6.279970162 5.626490282 1.016029597 0.7400374438 -0.6703053937 -0.05509320312 8.265194654e-40
-5.594998405 5.601014129 -0.4578712497 0.665805604 -0.5436733002 0.5110012136 5.510129769e-40
-4.497165757 6.020327797 -4.883005309 0.9511654231 0.1280105614 0.2808872265 3.673419846e-40
-4.126798087 6.452029043 -6.142466867 0.8188972117 0.2151322814 0.5320953468 9.183549616e-41
-4.208164822 7.146666758 -6.068408666 0.8406612182 0.1319415333 0.5252429419 9.183549616e-41
0.3827541364 -0.07792030033 -3.917854308 -0.3546882058 0.8061022614 -0.4737039379 0
-3.892325917 6.743283862 -6.596132678 0.5929109475 0.2799578482 0.7550365631 9.183549616e-41
2.665422957 0.478529767 -3.287541837 0.1488949913 0.6466264099 -0.7481340572 7.346839693e-40
-4.481681638 7.003881862 -5.385205926 0.9094020574 0.1833824427 0.3733078859 1.285696946e-39
-4.307106784 6.167529626 -5.557090993 0.9013924134 0.1737916927 0.3965957195 3.673419846e-40
-4.740898885 5.883151317 -3.590755722 0.9779138311 0.1142700839 0.1750053911 4.591774808e-40
-6.347318929 5.487445576 0.5250643715 0.860031727 -0.4328208474 0.2702064813 8.265194654e-40
-5.620881998 5.349964202 -0.5770677316 0.7673297553 -0.296843293 0.5684092768 5.510129769e-40
-4.499247912 5.347009533 -4.571895991 0.4496029163 0.8630048013 0.2303908212 3.673419846e-40
-4.533309863 5.343222382 -4.474013388 0.5179136106 0.8279807082 0.2149731115 3.673419846e-40
-4.802462167 5.623368594 -3.273780389 0.9647554492 0.2151023206 0.1515846789 4.591774808e-40
-5.028666313 5.757530124 -1.48292683 0.9761516592 -0.2053436436 0.07044094117 5.510129769e-40
-4.570526317 6.298413191 -4.588411223 0.9601728189 0.1534455679 0.2335007826 3.673419846e-40
-4.833645641 6.709013631 -4.299147578 0.84939189 0.4350479421 0.2987753424 5.510129769e-40
-2.199818106 7.180497761 -1.092008286 0.6981745913 -0.710677952 0.08653951997 2.755064885e-40
-6.359337252 3.850514453 1.824712774 0.9443072364 -0.3047685727 -0.1240965767 6.428484731e-40
-6.344300785 3.853345376 1.926026004 0.9510491111 -0.2899469453 -0.1069409056 6.428484731e-40
4.755592983 1.016465629 -2.660287409 -0.2940693013 -0.5137833069 0.8059466233 4.591774808e-40
2.857097436 3.049491932 -1.631307419 -0.008687458311 0.8049150044 -0.5933265237 0
4.159978826 1.711307782 -2.5888096 0.3301211554 0.3701075156 -0.8683550251 2.755064885e-40
2.798185554 2.025393984 -2.729582826 0.05914492903 -0.5506376696 0.832646404 6.428484731e-40
-0.1607557891 -2.19053351 -4.340234566 0.6953914473 0.2543406164 0.6721172412 1.836709923e-40
-0.2373828092 -2.189660908 -4.252616647 0.743993291 0.2655917734 0.6131353789 1.836709923e-40
-0.308166075 -2.18993826 -4.154082345 0.7871496075 0.2731779713 0.552964096 2.755064885e-40
-0.3762252172 -2.177799101 -4.047741506 0.8247027921 0.2714441825 0.4961686814 2.755064885e-40
-0.4255261458 -2.17597673 -3.951708833 0.8498801555 0.2697449595 0.4527045153 2.755064885e-40
-0.4693177473 -2.175650038 -3.855072637 0.869254939 0.2679992733 0.4154181514 2.755064885e-40
-0.5148433491 -2.168790621 -3.751502325 0.8854045387 0.2644836664 0.3822397064 1.836709923e-40
-0.553632492 -2.166121795 -3.651797966 0.897101137 0.261951149 0.3557964946 5.510129769e-40
-0.5941215146 -2.153432042 -3.542268449 0.9048205256 0.2587168582 0.3381795437 5.510129769e-40
-0.6254491708 -2.148677135 -3.439541847 0.9058525597 0.2602735558 0.3341987676 6.428484731e-40
-0.654722053 -2.141329734 -3.335567785 0.8974308944 0.2648181258 0.3528302001 4.591774808e-40
-0.6797131037 -2.143216312 -3.240419416 0.8822581717 0.2731270813 0.3834346306 4.591774808e-40
-0.7113136238 -2.137429717 -3.136464778 0.8522300345 0.2848761774 0.4388046624 8.265194654e-40
-0.7483379687 -2.133005837 -3.034831422 0.8083240375 0.2979233764 0.5077931786 3.673419846e-40
-0.7972571519 -2.12667435 -2.930628805 0.7404490393 0.311059275 0.5957997546 3.673419846e-40
2.252090319 0.5075438772 -3.322530097 -0.09532291151 -0.636023951 0.7657591503 1.836709923e-40
5.207326938 0.5598420998 -2.771954254 0.4400657592 0.398400126 -0.8047480768 3.673419846e-40
4.960049093 -0.6226725506 -3.31913817 -0.4395332835 -0.2707213028 0.8564580952 3.673419846e-40
-2.28664887 1.612489599 -2.66776025 0.02993117337 -0.4031906274 0.9146263952 0
-2.400215153 1.60712686 -2.673787693 0.05402633638 -0.3957480033 0.9167686038 0
3.114725432 2.032645357 -2.740315302 -0.06238294305 -0.5191816334 0.8523841856 2.755064885e-40
4.467813651 1.882016334 -2.387024173 0.3671340616 0.4413233359 -0.8188078493 2.755064885e-40
4.651935897 1.833944335 -2.328223432 0.3951914237 0.4412149707 -0.8057003713 1.836709923e-40
-2.873908722 3.034477793 -1.572087596 0.1323348781 0.4304226709 -0.8928739017 1.836709923e-40
-1.093589624 2.984482925 -1.522822904 0.2883282269 0.8377980988 -0.4636390614 9.183549616e-41
2.813268972 0.2431785696 -3.640643896 -0.1790978339 -0.8152933489 0.5506548112 7.346839693e-40
4.484834647 2.117970297 -2.23750826 0.3803511474 0.543390652 -0.7483713009 6.428484731e-40
-5.08228202 -1.811216337 -1.652590883 0.7020314205 0.4006554316 0.5887504648 1.836709923e-40
-5.177888873 -1.803241675 -1.550717083 0.7341571305 0.3960942742 0.5514731487 1.836709923e-40
-5.259727717 -1.795042477 -1.449036104 0.7628749754 0.3979034538 0.5096024072 1.836709923e-40
-5.328245112 -1.787886557 -1.344849942 0.7881520055 0.4030789725 0.4651276795 1.836709923e-40
