# .PCD v0.7 - Point Cloud Data file format
VERSION 0.7
FIELDS x y z normal_x normal_y normal_z rgb
SIZE 4 4 4 4 4 4 4
TYPE F F F F F F F
COUNT 1 1 1 1 1 1 1
WIDTH 511
HEIGHT 1
VIEWPOINT 0 0 0 1 0 0 0
POINTS 511
DATA ascii
-3.288131414 -6.122651083 2.94872353 0.2935002641 0.9267669862 -0.2344366614 9.183549616e-41
-3.184698655 -6.127169028 2.969568033 -0.2488639015 -0.9390353059 0.2372329085 3.673419846e-40
-3.08007029 -6.121008962 2.991368498 -0.1922136024 -0.9529046416 0.2345776526 3.673419846e-40
-2.978796647 -6.128439376 3.016591375 0.1356866153 0.9642747152 -0.2275157489 3.673419846e-40
-2.869000477 -6.127984074 3.032461345 -0.06797074191 -0.9704559777 0.2315063145 1.010190458e-39
-2.767052099 -6.123190874 3.055996149 -0.01512131751 -0.9676488156 0.2518474052 1.010190458e-39
-2.661688586 -6.113806656 3.073808513 0.02622004853 -0.966560306 0.2550954407 1.010190458e-39
-2.557950515 -6.102405986 3.09082421 0.0511001094 -0.9613826149 0.2704297442 1.010190458e-39
-2.454242336 -6.097815215 3.110720695 0.06745925202 -0.950955005 0.3018837985 1.010190458e-39
-2.398399611 -6.077427244 3.44420015 0.1078559199 -0.7846402737 0.6104971265 1.010190458e-39
-2.251061019 -6.092924871 3.154662288 0.09818764391 -0.932688018 0.347062311 1.010190458e-39
-2.147165471 -6.091118889 3.175472192 0.1218181145 -0.9124515643 0.3906308868 1.010190458e-39
-2.045391991 -6.0751121 3.189615819 0.1268796752 -0.9037663378 0.4087883985 1.010190458e-39
-1.948903945 -6.058917693 3.205180063 0.1133979379 -0.8870060261 0.4476172666 1.010190458e-39
-1.843812252 -6.028834329 3.208376243 0.1064628498 -0.8752091005 0.4718841933 1.010190458e-39
-1.747232835 -5.996176418 3.211650932 0.0754036768 -0.866929236 0.4926946167 1.010190458e-39
-1.63921115 -5.959942357 3.208882848 0.04495804942 -0.8617982353 0.5052549608 1.285696946e-39
-1.523322327 -5.923382194 3.208231169 0.000899834176 -0.8692039301 0.4944529484 1.102025954e-39
-1.669869868 -5.896175393 3.318363823 0.03584393372 -0.8293476092 0.5575820617 1.285696946e-39
-1.296044074 -5.883290391 3.227422181 -0.1153138677 -0.867640795 0.4836343275 2.938735877e-39
-1.196329338 -5.888225029 3.253782714 -0.160270518 -0.8518552377 0.4986542038 2.938735877e-39
-1.084392634 -5.897550315 3.278488738 -0.2148634605 -0.8478700999 0.4847163986 0
-0.9939915653 -5.967328973 3.335337673 -0.3264326225 -0.7794040973 0.5347625605 3.673419846e-40
-0.8996746216 -5.979347827 3.372037006 -0.3390157726 -0.8056026259 0.4858731472 3.673419846e-40
-0.8108052102 -6.01306973 3.414405157 -0.3750254704 -0.7946950407 0.4773004178 1.102025954e-39
-0.7249276074 -6.04668536 3.454349183 -0.3935520878 -0.8050114774 0.4439293585 2.755064885e-39
-0.6381466584 -6.079066441 3.491976174 -0.3752258445 -0.8386303129 0.3948477732 2.755064885e-39
-0.5420027506 -6.095943871 3.518042592 -0.3538827147 -0.8624949691 0.3617588319 1.285696946e-39
-0.4392203851 -6.104639404 3.537889625 -0.2881258985 -0.9142819872 0.2847313022 7.346839693e-40
-0.3308053262 -6.100067819 3.551589473 0.2230338977 0.9520790139 -0.2092879162 6.428484731e-40
-0.2234203468 -6.093026521 3.566031791 0.1657032934 0.9745051583 -0.151268354 3.673419846e-40
-0.1193163567 -6.084684638 3.585819331 0.1050226169 0.9911867074 -0.08074132182 5.510129769e-40
-0.01805403144 -6.076104563 3.608530812 0.07517206888 0.9956062377 -0.05583349762 5.510129769e-40
0.08698032913 -6.06329237 3.626019001 0.03199647302 0.9994275333 -0.01099233761 5.510129769e-40
0.1906107683 -6.059206568 3.645082078 0.002925961244 0.9998036451 -0.01959872615 1.102025954e-39
0.2903283803 -6.057897827 3.669773986 -0.02493434808 0.9996491038 -0.008941342962 1.102025954e-39
0.3945234736 -6.066084223 3.689354441 -0.06384907972 0.9975393732 -0.02895676029 1.102025954e-39
0.4985398547 -6.066959619 3.708793283 -0.07103714672 0.9963947902 -0.04638044604 1.102025954e-39
0.5981536034 -6.07298139 3.735198824 -0.08843301767 0.9915825409 -0.09457095783 1.102025954e-39
0.6975516522 -6.078147726 3.762510762 -0.08980115726 0.9816913894 -0.1679814515 1.102025954e-39
0.7981346089 -6.090985589 3.792814942 0.0977208471 -0.96346571 0.2493681248 1.102025954e-39
0.8985312659 -6.101061473 3.823829034 0.1094935635 -0.938010411 0.3288580673 1.102025954e-39
1.005273753 -6.101900088 3.851333508 0.1525621572 -0.8877380503 0.4343339065 1.102025954e-39
1.101597623 -6.084382693 3.870738015 0.1656855259 -0.8274836045 0.5364878292 1.102025954e-39
1.084258071 -6.059686713 3.64254959 -0.06208028001 0.9750171902 -0.2132780289 1.102025954e-39
1.304175087 -6.053766698 3.896049342 0.2083748289 -0.7322365076 0.6483900274 1.102025954e-39
1.408244777 -6.030541968 3.898416955 0.2209724902 -0.6378911018 0.7377439263 1.102025954e-39
1.50766942 -6.018279641 3.905342369 0.2382808152 -0.5928854322 0.7692263109 1.102025954e-39
1.61080056 -5.997570606 3.904507793 0.2404644653 -0.5625176481 0.79104408 1.102025954e-39
1.719667466 -5.974728821 3.903049344 0.248867065 -0.5174225273 0.8187423968 1.102025954e-39
1.822375057 -5.954192793 3.901633412 0.2539717051 -0.5120297003 0.8205631962 1.102025954e-39
2.010633703 -5.809921094 3.956074474 0.2685593194 -0.3580839407 0.8942325108 3.673419846e-40
2.043489433 -5.901167557 3.886287899 0.2530310465 -0.4331507598 0.8650755509 3.673419846e-40
2.160334142 -5.865574637 3.872698181 0.2659762361 -0.4009177924 0.8766536178 3.673419846e-40
2.285661078 -5.822065356 3.851391458 0.2538421665 -0.3680970062 0.8944656218 3.673419846e-40
-5.256741395 -2.383663851 0.9141419328 0.7480888577 0.641751871 -0.1688715398 2.755064885e-40
-5.189896447 -2.441720944 0.9769197356 0.7363625134 0.651969976 -0.1808463417 2.755064885e-40
-5.119501015 -2.496875233 1.038728533 -0.7228928956 -0.661407691 0.1999143011 2.755064885e-40
-4.056292011 -1.67322291 3.193852197 -0.3735960693 -0.4064432409 0.8338044548 4.591774808e-40
-4.805945539 1.20359756 2.802130472 -0.3802931364 -0.4821627125 0.7892377646 8.265194654e-40
-3.826890059 -2.501574085 2.713220929 -0.3486472346 -0.6586067908 0.6668449602 4.591774808e-40
-3.732400018 -2.514749631 2.745084793 -0.3278457222 -0.6581023658 0.6778041447 4.591774808e-40
-4.239918715 -1.763417086 3.052665103 -0.4326621646 -0.4506141685 0.7808651115 4.591774808e-40
-4.294942611 -2.311152216 2.620984405 -0.4640961813 -0.6057519318 0.6462811553 4.591774808e-40
-4.33443917 5.450967471 -4.531660505 0.04926977983 0.9607519547 0.2729984803 3.765255342e-39
-3.638822363 -2.529008341 2.777972397 -0.3042092668 -0.659602153 0.6873003141 4.591774808e-40
-5.050355833 -2.548858117 1.096017244 -0.7072792975 -0.6730503722 0.2162387381 2.755064885e-40
-6.251045593 2.059371835 3.581875643 -0.6640339604 -0.4666596845 0.5841982868 9.183549616e-41
-5.743468285 1.545477166 2.877305875 -0.4364330761 -0.8846423771 0.164115919 8.265194654e-40
-4.866081779 1.605995553 3.721850403 -0.05678395088 -0.8533040212 0.5183124833 9.183549616e-41
-4.977653394 -2.598349158 1.15340293 -0.6939799894 -0.6826594981 0.2288400839 2.755064885e-40
-5.039976776 1.551877515 3.554795483 -0.1199212458 -0.8675516477 0.4826728015 9.183549616e-41
-6.358134006 1.767285659 0.7406854586 0.8554947344 0.5143150219 -0.06007343521 6.428484731e-40
-3.624615965 -2.626502657 2.689726136 -0.3064241786 -0.6878193968 0.6580339658 4.591774808e-40
-5.23197697 -2.203365702 1.461897319 -0.7367560057 -0.6161873997 0.2783948212 2.755064885e-40
-3.365631446 -2.984730468 2.361564704 -0.265977868 -0.7960777171 0.5436138722 3.673419846e-40
-3.701678685 -2.704035192 2.563992461 -0.3282066444 -0.7160764508 0.616047819 4.591774808e-40
-5.512780565 -1.942222779 1.17741481 -0.8065321175 -0.5491870545 0.2188595956 2.479558396e-39
-6.425851245 1.884444683 0.9950833871 0.8248920101 0.5508427679 -0.1269858915 6.428484731e-40
-4.905834943 -2.650233229 1.210885103 -0.67656436 -0.6952190634 0.2427573287 2.755064885e-40
-2.60917333 -2.7410771 2.822825988 -0.2622119017 -0.6073041135 0.7499510866 1.102025954e-39
-4.834490921 -2.698753944 1.264103811 -0.6584714614 -0.7064165366 0.2595977877 2.755064885e-40
-4.756262676 -2.747215876 1.324598137 -0.636237121 -0.7194566528 0.2785398544 2.755064885e-40
-5.767501893 -1.738883952 0.5982853669 0.8683012289 0.4879142071 -0.0894019152 1.836709923e-40
-6.324818463 1.809778487 2.775540214 0.6955068028 0.7179015497 -0.0297934925 9.183549616e-41
-6.266127173 1.715692574 0.9802024969 -0.8341131815 -0.5300719193 0.1525744433 6.428484731e-40
-2.579078291 -2.939511643 2.650557151 -0.3614622912 -0.5791992766 0.7306662781 1.102025954e-39
-4.679713758 -2.795125195 1.380905205 -0.6142096682 -0.7316229776 0.2957605487 2.755064885e-40
-4.603666362 -2.839592696 1.433370085 -0.5912730699 -0.7437525252 0.3118145892 2.755064885e-40
-4.487159572 -2.049599732 2.701507301 -0.5062947988 -0.5357829588 0.6757234626 4.591774808e-40
-4.522426992 -2.881679432 1.487802858 -0.5668710945 -0.7564193195 0.3263234213 2.755064885e-40
-4.441497165 -2.920919551 1.538027925 -0.5393313987 -0.7688674957 0.3434594831 2.755064885e-40
-4.357625829 -2.956882677 1.587201758 -0.5096506881 -0.7797749327 0.3636031222 2.755064885e-40
-4.272119588 -2.988912366 1.634114612 -0.4888029424 -0.7865577488 0.3773573786 2.755064885e-40
-4.009114828 -3.097393753 1.713171268 -0.4035566713 -0.8207351123 0.4043957079 2.755064885e-40
-4.099127908 -3.047972779 1.723168561 -0.4291162322 -0.8081518688 0.4034226273 2.755064885e-40
-4.009959441 -3.071786364 1.761845754 -0.4052850349 -0.8172232088 0.4097441489 2.755064885e-40
-4.872428162 -2.828893115 -0.03642705474 0.6784140082 0.7281866666 0.09746082327 6.428484731e-40
-4.049529286 -2.036810031 2.977950518 -0.3921740012 -0.5241066721 0.7559839609 4.591774808e-40
-4.745712108 -2.964478726 0.1057653173 0.6573543876 0.7519302582 0.04986076481 1.836709923e-40
-4.680420249 -3.034258582 0.1801258787 0.6388120691 0.7688606852 0.02779185225 1.010190458e-39
-4.614276532 -3.094710021 0.2424162504 0.6246856524 0.7808341123 0.008119410203 1.010190458e-39
-4.5446197 -3.156263243 0.3109308227 0.6064361831 0.7950348226 -0.01244133192 3.673419846e-40
-4.472702542 -3.213497368 0.3794385815 0.5879250197 0.8081270705 -0.03570446901 2.755064885e-40
-4.400064985 -3.268635006 0.4474498552 0.5629432368 0.824646168 -0.05525947614 1.836709923e-40
-4.324535772 -3.314567884 0.5027017928 0.543726908 0.8364033727 -0.06921306009 2.755064885e-40
-4.248200212 -3.360968466 0.5585471885 0.5073895145 0.8574433154 -0.08571371844 2.755064885e-40
-4.14672031 -3.380523151 0.810671344 -0.4672061058 -0.8664872429 0.1758360387 1.836709923e-40
-4.084084478 -3.433669334 0.6621257395 0.446357082 0.886287621 -0.1235297866 9.183549616e-41
-3.998887208 -3.464411978 0.7002635122 0.4111716065 0.900573089 -0.1410887008 1.836709923e-40
-3.911491748 -3.491375311 0.7432407801 0.3796574188 0.9116994189 -0.1570490814 0
-3.823241791 -3.517730862 0.7806046439 -0.3555166594 -0.9195675368 0.1673423141 0
-3.73374874 -3.542194094 0.8178064137 -0.3334417826 -0.9266606994 0.1735411359 0
-3.684485672 -3.566638179 0.7702948284 -0.3178946381 -0.9344879526 0.1602350319 0
-3.410638572 -3.617382829 0.908531757 -0.2898623189 -0.9319993277 0.2176168403 0
-3.458650699 -3.600929205 0.9227703617 -0.2861433533 -0.9315221119 0.2244739104 0
-3.366989491 -3.618670921 0.9589290956 -0.2801281234 -0.9296212724 0.2394421105 0
-3.27246746 -3.631263966 0.9893111533 -0.313017696 -0.9177701237 0.2443725067 0
-3.1779216 -3.640607297 1.023216718 -0.3633603992 -0.9021599732 0.2325437659 0
-3.08497627 -3.657272091 1.054319067 -0.4196773662 -0.8794326097 0.2246534962 0
-6.195221806 1.713132987 2.979368736 -0.6110617955 -0.7807736394 0.1303687312 9.183549616e-41
-3.785594173 -3.247446317 1.599084272 -0.3454978389 -0.8543391911 0.3882470733 6.244813739e-39
-3.891166428 -5.893682424 2.810129811 -0.9062971811 -0.3537390421 0.2312879364 5.510129769e-40
-3.841447573 -5.949360151 2.876488051 -0.8259276309 -0.4890095732 0.2805587029 5.510129769e-40
-3.786872241 -5.997979226 2.932609353 -0.760921461 -0.5728356544 0.3047258494 5.510129769e-40
-3.727150168 -6.046799968 2.98589499 -0.6708060123 -0.6731004189 0.3113761712 7.346839693e-40
-3.650838992 -6.082938786 3.02610996 -0.5908147451 -0.746219791 0.3067473887 7.346839693e-40
-3.559696217 -6.108389119 3.062375061 -0.4951720028 -0.8061073428 0.3240303066 7.346839693e-40
-3.459184197 -6.119638096 3.089605718 -0.4155984668 -0.8444660678 0.33786828 5.510129769e-40
-3.354736919 -6.122668293 3.110706982 -0.354637976 -0.8711552799 0.3395885514 9.183549616e-41
-3.252731952 -6.129265859 3.13667394 -0.2973538062 -0.8876776726 0.3515808066 3.673419846e-40
-3.148082471 -6.133854789 3.159294513 -0.2404156662 -0.9011330248 0.3607763561 3.673419846e-40
-3.046312347 -6.145176092 3.187213842 -0.1842562699 -0.9114483094 0.3678472596 3.673419846e-40
-2.939269932 -6.146240021 3.208548388 -0.1233764826 -0.9182308904 0.3763379803 1.010190458e-39
-2.978316205 -6.123678546 2.974605358 0.1593438054 0.9619885005 -0.2217829493 3.673419846e-40
-2.728180838 -6.135936785 3.250022894 -0.01953901545 -0.9157366658 0.401303608 1.010190458e-39
-2.622723284 -6.116233126 3.261613739 0.01337523947 -0.9168083173 0.3991035108 1.010190458e-39
-2.522192857 -6.106524621 3.281122555 0.06009783761 -0.907734379 0.4152186737 1.010190458e-39
-2.412729657 -6.1001429 3.298137028 0.09055848597 -0.8932914549 0.4402607605 1.010190458e-39
-2.314515906 -6.08978541 3.316643377 0.1097052303 -0.8809050396 0.4604031642 1.010190458e-39
-2.211957102 -6.078400553 3.332424832 0.128624226 -0.8603569081 0.4931954979 1.010190458e-39
-2.11013981 -6.063852031 3.345798373 0.1484103538 -0.8321250837 0.5343614993 1.010190458e-39
-2.005657233 -6.036584055 3.348421782 0.1519950134 -0.8191368146 0.5530934776 1.010190458e-39
-1.717964546 -5.832266284 3.480635994 0.08234548869 -0.4658424657 0.8810278189 1.285696946e-39
-1.798753337 -5.947012497 3.32712776 0.09930608201 -0.8110839876 0.5764382596 1.010190458e-39
-1.684604511 -5.916451496 3.324202471 0.06157541546 -0.8005961569 0.5960320979 1.285696946e-39
-1.561019696 -5.879671493 3.315113148 0.003747545502 -0.7796165963 0.6262458931 1.102025954e-39
-1.445401557 -5.865683305 3.318987103 -0.05470447084 -0.7625692391 0.6445894634 9.183549616e-40
-1.324037772 -5.870217162 3.335073607 -0.1442267131 -0.7190748156 0.6798014893 2.938735877e-39
-1.209836885 -5.864871172 3.354828043 -0.2284651608 -0.7173322723 0.6582082356 2.938735877e-39
-1.155040433 -5.85162233 3.444345857 -0.3258144026 -0.5720548876 0.7527271622 0
-1.017678958 -5.881784253 3.42637179 -0.3184790995 -0.7471716395 0.5833571842 3.673419846e-40
-0.9272231087 -5.920257866 3.476956141 -0.3782431261 -0.7320812938 0.5665590144 3.673419846e-40
-0.8471164875 -5.9661513 3.533274027 -0.407342981 -0.7209576343 0.5606173253 1.102025954e-39
-0.7644918936 -6.036758359 3.453765554 -0.3982647454 -0.7923472737 0.4621374151 2.755064885e-39
-0.6848850991 -6.039153706 3.632263555 -0.4425998269 -0.7379104791 0.5095032071 2.755064885e-39
-0.6033148336 -6.072410248 3.674515964 -0.4427568795 -0.7542136662 0.4849000839 1.285696946e-39
-0.5071508049 -6.087877232 3.703713718 -0.4074091281 -0.7881083144 0.4614142251 7.346839693e-40
-0.4062577067 -6.09727983 3.727934499 -0.3675861033 -0.8146537831 0.4485751558 6.428484731e-40
-0.3041282681 -6.105577803 3.751747401 -0.3181286973 -0.8489232356 0.4220467651 3.673419846e-40
-0.1980310453 -6.109902676 3.771102005 -0.2639306357 -0.8792402959 0.3965817968 5.510129769e-40
-0.09233590668 -6.112359336 3.788911546 -0.2020222083 -0.9184579468 0.3400323916 5.510129769e-40
0.01517920389 -6.110518105 3.806515846 -0.1476273652 -0.9347422864 0.3232073933 5.510129769e-40
0.119533646 -6.106009632 3.82848901 -0.09555386509 -0.9402943473 0.3266741485 1.102025954e-39
0.2254601189 -6.106170815 3.849677548 -0.0553215592 -0.9389087073 0.3396909836 1.102025954e-39
0.3245983973 -6.104644052 3.878177576 -0.008310562829 -0.9269857368 0.3750045043 1.102025954e-39
0.4311039524 -6.101273687 3.896146494 0.04164887781 -0.9315796466 0.361143646 1.102025954e-39
0.5173556421 -6.081443192 3.953822851 0.04568944696 -0.9314310353 0.3610383648 1.102025954e-39
0.6360661732 -6.098472599 3.94708051 0.08712462966 -0.8789303797 0.468925033 1.102025954e-39
0.7365341531 -6.092832883 3.971989023 0.1245695369 -0.8336408956 0.5380755409 1.102025954e-39
0.8405184735 -6.084862552 3.99058941 0.1439663268 -0.80906436 0.5698144945 1.102025954e-39
0.8492388458 -6.013131655 4.157893363 0.1926754087 -0.7020290418 0.6855883687 1.102025954e-39
1.039662971 -6.059077479 4.018352792 0.1908943358 -0.7524740421 0.6303508298 1.102025954e-39
1.143455981 -6.032513334 4.019343159 0.2041177525 -0.6854798018 0.6988944015 1.102025954e-39
1.245859467 -6.008055514 4.017679301 0.2314293187 -0.6223359556 0.7477555943 1.102025954e-39
1.405993679 -6.065665197 3.844404086 0.195811672 -0.7231786987 0.6623219451 1.102025954e-39
1.416024566 -5.941826003 4.08173619 0.2407087582 -0.6035452873 0.7601265552 1.102025954e-39
1.56912055 -5.930664251 4.002637363 0.2585247346 -0.4904009847 0.8322690886 1.102025954e-39
1.684066089 -5.902650936 4.000542935 0.2533883996 -0.4720913611 0.8443483083 1.102025954e-39
1.795755202 -5.872942479 3.991727401 0.2682925369 -0.4335958629 0.8602405142 1.102025954e-39
1.977425129 -5.976060271 3.839002872 0.2320319208 -0.5762712495 0.7836278675 3.673419846e-40
2.076928035 -5.736536369 3.932429581 0.2770598519 -0.3091304039 0.9097671306 3.673419846e-40
-3.829106012 -3.113380567 1.838119925 -0.3568614949 -0.829461617 0.4297014073 3.673419846e-40
-3.737322994 -3.132128688 1.874187236 -0.3316832114 -0.8341928528 0.4405774979 3.673419846e-40
-5.703724966 2.192534163 3.933454097 -0.4024646198 -0.4044483441 0.8212452537 9.183549616e-41
-3.644003972 -3.145696407 1.907027146 -0.3095917418 -0.8384673693 0.4484700927 3.673419846e-40
-3.838837656 -2.400144744 2.799845457 -0.3512941885 -0.6190542642 0.7023988974 4.591774808e-40
-3.962044063 -1.686172748 3.227144009 -0.3410222695 -0.404168221 0.8487354481 4.591774808e-40
-5.493589614 -2.015805154 1.0656826 -0.7992457593 -0.5665135815 0.2006703222 2.479558396e-39
-4.111829653 -2.769673426 2.185553748 -0.4234287438 -0.7541699573 0.5019320417 2.755064885e-40
-4.526710478 -2.418720663 2.319553254 -0.5341847551 -0.6524502347 0.5375456619 2.755064885e-40
-4.219672852 1.657909851 3.470774666 0.334716195 -0.7440922438 0.5781797311 2.755064885e-40
-4.6176632 1.184806698 2.874546331 -0.3045196748 -0.3491176867 0.8862192779 8.265194654e-40
-3.549584638 -3.159427771 1.938152511 -0.2944682354 -0.8428689742 0.4504002116 3.673419846e-40
-4.995999342 2.069732959 4.171334767 -0.2320901127 -0.4945626213 0.8375810368 2.755064885e-40
-6.083712196 1.991332229 3.674742293 -0.5394135561 -0.5234866125 0.6595413421 9.183549616e-41
-6.239779882 1.954686027 3.490523971 -0.650569275 -0.5543967399 0.519041302 9.183549616e-41
-5.890871145 1.583349853 2.980232306 -0.4472697672 -0.880204678 0.1587119406 9.183549616e-41
-5.713498383 -1.812867497 0.6755705614 0.8557919624 0.5050934082 -0.1118068253 9.183549616e-41
-5.655971164 -1.883743946 0.7435685166 0.8415210079 0.5239726214 -0.13151078 9.183549616e-41
-3.45401516 -3.169846652 1.967779877 -0.2841439272 -0.8451369589 0.4527756059 3.673419846e-40
-5.331206114 -1.875165129 1.862951228 -0.7605002048 -0.5356024384 0.3671096109 3.673419846e-40
-3.357115652 -3.176556597 1.995384932 -0.2882277801 -0.8392804229 0.4610131435 3.673419846e-40
-5.831313506 1.569546789 2.832576773 -0.4580987863 -0.8812293628 0.1165345965 8.265194654e-40
-4.307762496 -2.594642023 2.283866801 -0.4710338381 -0.7103462445 0.5230060576 2.755064885e-40
-5.308349429 -1.546614248 2.284938758 -0.7336435984 -0.4279358548 0.5278617003 3.673419846e-40
-3.26141471 -3.184774155 2.024924783 -0.3081874775 -0.8247488726 0.4741410928 3.673419846e-40
-4.099006187 1.723867095 3.447332444 0.4394398942 -0.6811752322 0.5855705614 2.755064885e-40
-3.164993465 -3.195347481 2.053931888 -0.331409098 -0.808439296 0.4864092048 3.673419846e-40
-2.799169247 -2.840443621 2.69253028 -0.2528826233 -0.6565098109 0.7106653551 1.102025954e-39
-5.332090529 1.557547119 3.479690363 -0.2185995013 -0.8550402684 0.4702344068 9.183549616e-41
-3.067860666 -3.206033596 2.08178058 -0.3557677472 -0.7890265275 0.5008656994 3.673419846e-40
-4.896352239 1.225859572 2.770955884 -0.4282888457 -0.4941068189 0.756589133 8.265194654e-40
-3.301030901 -2.836683312 2.589201981 -0.2397489296 -0.7399396194 0.6284980592 3.673419846e-40
-3.179574052 -2.241837518 3.154847614 -0.1656495288 -0.5429596469 0.8232588022 3.673419846e-40
-2.971298052 -3.218005791 2.110606713 -0.3920378346 -0.7617466831 0.5157987273 5.510129769e-40
-5.652562885 1.541376584 2.341848577 -0.6285729905 -0.7542966412 0.1895588897 8.265194654e-40
-4.020050266 -1.904383438 3.079110795 -0.3742645199 -0.4814872817 0.7925251205 4.591774808e-40
-2.87757618 -3.231587237 2.142689566 -0.4310944338 -0.7268879957 0.5345946416 5.510129769e-40
-5.347042632 -2.251630552 -0.470724563 0.7634657704 0.6139343872 0.2005108118 8.265194654e-40
-5.293340272 -2.343757077 -0.375578508 0.7527588477 0.6344370209 0.175623984 7.346839693e-40
-5.237763053 -2.425301949 -0.2952990404 0.7365905842 0.6596322103 0.149397652 6.428484731e-40
-5.180422453 -2.498044832 -0.2298258867 0.7230353325 0.6775708877 0.134601635 9.183549616e-40
-5.121701431 -2.573200529 -0.1555745976 0.7160217453 0.6879556011 0.118448095 9.183549616e-40
-5.061787176 -2.649602195 -0.08092462615 0.7111750914 0.695603414 0.1018129647 3.673419846e-40
-2.787876564 -3.250622599 2.178763622 -0.4682179664 -0.6854953578 0.5575554237 5.510129769e-40
-3.282554785 -2.245898253 3.134928688 -0.1923598473 -0.5456116049 0.8156627157 3.673419846e-40
-4.861504976 -2.86011622 0.1579199741 0.6783983012 0.7337254136 0.03771952085 4.591774808e-40
-4.794874015 -2.926839142 0.2329514949 0.6668744541 0.7448903176 0.02041757441 1.836709923e-40
-4.729664618 -2.992718688 0.3015188116 0.6469753397 0.7624933169 -0.005181846839 1.010190458e-39
-4.663975639 -3.052678968 0.3581027805 0.6316980281 0.7747958888 -0.02547414207 3.673419846e-40
-4.59441595 -3.112272932 0.4214004209 0.6173223417 0.7852037152 -0.04866469 1.836709923e-40
-4.517809069 -3.173438421 0.5080440147 0.5984115106 0.797435382 -0.07746273589 2.755064885e-40
-4.441281057 -3.225392265 0.5813070866 0.5821048548 0.8081001927 -0.09015551326 1.836709923e-40
-4.368235829 -3.275148084 0.6365043941 0.5555604083 0.8239269756 -0.1117898547 2.755064885e-40
-4.292137773 -3.319857649 0.6864039608 0.5205915987 0.8433313349 -0.1333290926 2.755064885e-40
-4.211100163 -3.359226663 0.741216465 0.4905282211 0.8579703318 -0.1525417126 9.183549616e-41
-3.952413509 -3.485396661 0.6876055163 0.3940706871 0.9098014275 -0.1302676326 0
-4.026378787 -3.409732038 0.9336724442 -0.4156655044 -0.8805868606 0.2275718994 0
-3.956080598 -3.452795112 0.8715771667 -0.394155963 -0.8973226621 0.1986280871 0
-3.866927538 -3.477859936 0.909636344 -0.3670082408 -0.9051891911 0.2143303048 0
-3.777141636 -3.501998958 0.9473727532 -0.3442167369 -0.9100265716 0.2310118546 0
-3.684967556 -3.519062956 0.983054344 -0.3203434992 -0.9145128555 0.2470754533 0
-3.592729868 -3.535702837 1.0189347 -0.3014145978 -0.9182481914 0.2568452828 0
-3.499851915 -3.554242668 1.05079543 -0.2912708455 -0.9184152785 0.2677212558 0
-3.406178894 -3.566896928 1.085525873 -0.2879887518 -0.9155757287 0.2806840996 0
-3.310970336 -3.577478911 1.115090466 -0.3191756347 -0.9026493971 0.288705698 0
-3.216766024 -3.591807025 1.146498068 -0.3700119098 -0.884466015 0.2842728529 0
-3.306054344 -3.594752026 1.068051128 -0.3254224046 -0.9057634445 0.2714642539 0
-6.113048514 1.675077828 3.027712707 -0.5570549052 -0.8130019752 0.1694627421 9.183549616e-41
-2.699459149 -3.265556552 2.215207274 -0.5118132871 -0.6280305932 0.5861951324 5.510129769e-40
-5.813793112 1.624077855 2.238138464 -0.6498963018 -0.7507072178 0.1186316573 8.265194654e-40
-3.847810966 -5.876425286 2.964758812 -0.8629876935 -0.3548554454 0.359624601 5.510129769e-40
-3.791273145 -5.931262368 3.032257384 -0.8013677594 -0.4602311421 0.3820955509 5.510129769e-40
-3.730630672 -5.979743229 3.092294737 -0.7417109607 -0.5340902905 0.4057245524 7.346839693e-40
-3.668344422 -6.021058559 3.146672116 -0.6400959435 -0.6496138547 0.4102182624 7.346839693e-40
-3.589226316 -6.05225363 3.19023391 -0.5209405138 -0.7481611543 0.4109450914 7.346839693e-40
-3.50435457 -6.079949088 3.227893461 -0.4702067651 -0.7768272351 0.418861606 5.510129769e-40
-3.235324872 -6.117246633 3.138752507 -0.2497844686 -0.920319916 0.3010298513 3.673419846e-40
-3.309342142 -6.104016218 3.28659951 -0.3522641867 -0.8182887206 0.4542174727 3.673419846e-40
-3.063776404 -6.005923548 3.626151403 -0.230204934 -0.59551224 0.7696563261 1.010190458e-39
-3.108097625 -6.12379136 3.341786333 -0.2273897737 -0.8565297261 0.4633041324 3.673419846e-40
-3.005171563 -6.135244303 3.372050099 -0.1721343828 -0.8492067427 0.4992170494 1.010190458e-39
-2.898162705 -6.134380644 3.394972177 -0.1130932359 -0.8457059523 0.5215279113 1.010190458e-39
-2.789727318 -6.12627242 3.411245 -0.05206972349 -0.8476884756 0.5279327535 1.010190458e-39
-2.687302939 -6.115240099 3.428709307 -0.005678877956 -0.8345230533 0.5509437574 1.010190458e-39
-2.582325513 -6.098582422 3.439498586 0.03328031582 -0.8295980495 0.5573683673 1.010190458e-39
-2.483225214 -6.087551851 3.45511412 0.0653259376 -0.8120231951 0.5799576299 1.010190458e-39
-2.375382922 -6.071686753 3.4654041 0.1054468579 -0.7953963022 0.5968464481 1.010190458e-39
-2.270530463 -6.044036718 3.46673914 0.1452043958 -0.7738223337 0.6165344105 1.010190458e-39
-2.407217457 -6.053879542 3.51462506 0.1000318823 -0.7693909515 0.6308971281 1.010190458e-39
-2.057543429 -5.98763712 3.464852785 0.1747430604 -0.7368662917 0.6530642625 1.010190458e-39
-1.943989996 -5.947257155 3.452599572 0.1475240345 -0.7205529906 0.6775249419 1.010190458e-39
-1.834163221 -5.899292355 3.429412107 0.1037876241 -0.7044157886 0.7021584763 1.010190458e-39
-1.719395313 -5.879363924 3.427700572 0.06599322116 -0.6587568422 0.7494560144 1.285696946e-39
-1.586579433 -5.841697601 3.415107775 0.002883675264 -0.607271042 0.7944895002 1.102025954e-39
-1.479039076 -5.829352405 3.411889904 -0.06844676463 -0.5653304302 0.8220197961 9.183549616e-40
-5.500225105 1.81196549 3.773716737 -0.3118516889 -0.6762227491 0.6674363773 9.183549616e-41
-4.790763957 -2.220733749 2.26796808 -0.6037391826 -0.6016303952 0.5230103889 2.755064885e-40
-6.070152773 1.687015507 3.208476369 -0.5325217792 -0.7975959778 0.2833040962 9.183549616e-41
-1.043458388 -5.843483826 3.542318281 -0.4118091365 -0.5489580282 0.7273639519 3.673419846e-40
-0.9514441471 -5.867296842 3.57996402 -0.4241692457 -0.6236036189 0.6566574278 3.673419846e-40
-0.8756710938 -5.915632148 3.6418915 -0.4692580717 -0.6045616054 0.6436630542 1.102025954e-39
-0.7952956385 -5.945473 3.692234337 -0.4780212507 -0.6360394288 0.6057635916 2.755064885e-39
-0.7152827286 -5.988242202 3.747868624 -0.4980958013 -0.6428542898 0.5819269153 2.755064885e-39
-0.638059018 -6.025073318 3.800723495 -0.4828658503 -0.6984366669 0.5282298675 1.285696946e-39
-0.5506152738 -6.046093397 3.838143738 -0.450940755 -0.720791272 0.5264146443 7.346839693e-40
-0.4574809459 -6.063513087 3.871353178 -0.4127824529 -0.7525346743 0.5131298184 6.428484731e-40
-0.3620491657 -6.081167673 3.903844448 -0.3651000466 -0.776760075 0.5131722342 3.673419846e-40
-0.2615701419 -6.091029644 3.930581843 -0.3264752987 -0.793399916 0.5137416205 5.510129769e-40
-0.1611488979 -6.101924786 3.959248382 -0.276396672 -0.8147598522 0.5096776069 5.510129769e-40
-0.1046408756 -6.100849161 3.991379335 -0.238191513 -0.8336267934 0.4983283781 5.510129769e-40
0.05219100645 -6.108960257 4.004968302 -0.1614500983 -0.8429165149 0.5132500508 1.102025954e-39
0.1575185083 -6.105518532 4.026142729 -0.1044622049 -0.8443461156 0.525516208 1.102025954e-39
0.2610611077 -6.103531958 4.050411002 -0.05569028952 -0.8291039958 0.5563139005 1.102025954e-39
0.2754173988 -6.072599332 4.171102028 -0.04612302547 -0.7579377669 0.6506942508 1.102025954e-39
0.4706353862 -6.090201971 4.086703717 0.04312667854 -0.8158170871 0.5766997226 1.102025954e-39
0.5759237215 -6.078028123 4.101128623 0.08991833061 -0.8034812959 0.5885002132 1.102025954e-39
0.6746301382 -6.068755297 4.11733205 0.1185383508 -0.7843687643 0.6088631217 1.102025954e-39
0.771122805 -6.052201835 4.126328711 0.157804665 -0.7739184534 0.6133089883 1.102025954e-39
0.8750598292 -6.025324998 4.126296519 0.1930138018 -0.7101215069 0.6771064302 1.102025954e-39
0.9850836346 -6.001646009 4.129309564 0.2173923929 -0.6745635173 0.7054818273 1.102025954e-39
1.182281065 -5.758637912 4.236235415 0.3013064127 -0.3434376328 0.8895307966 1.102025954e-39
1.375715587 -6.030276104 3.968341284 0.2136243955 -0.700043492 0.6813983615 1.102025954e-39
1.310155582 -5.91274967 4.104237472 0.2592964393 -0.5113750273 0.8193051556 1.102025954e-39
1.426175117 -5.876983476 4.091817082 0.2829301648 -0.4675231777 0.8374799103 1.102025954e-39
1.551550294 -5.839922379 4.08298762 0.2756073719 -0.4157229621 0.8667265978 1.102025954e-39
1.693198207 -5.787998922 4.069893774 0.2781148222 -0.3732677944 0.8850555346 1.102025954e-39
-5.42871701 1.561690498 3.452698774 -0.2408172697 -0.8603485118 0.4492298754 9.183549616e-41
-4.721134934 1.565934883 3.60931321 0.03108995956 -0.8726919065 0.4872804642 9.183549616e-41
-4.316913071 5.293482196 -4.104518241 0.1218323903 0.9643850355 0.2347730221 3.214242366e-39
-5.207536967 -2.278815857 1.355196903 -0.7363906467 -0.6260442267 0.2565101201 2.755064885e-40
-4.143636133 1.733437916 3.607637313 0.4358329384 -0.7280068043 0.5292029315 2.755064885e-40
-5.60738411 2.188785913 3.959601056 -0.386929187 -0.4099310209 0.825979638 9.183549616e-41
-5.57878171 -1.877933421 1.108297477 -0.8234946385 -0.5286188793 0.2059579103 2.479558396e-39
-5.38885789 1.397142252 2.388015534 -0.6326403414 -0.6686080849 0.3908061248 8.265194654e-40
-4.460667128 -2.662409653 2.019092581 -0.5217192179 -0.7263288899 0.4474990518 2.755064885e-40
-5.557337401 -1.948995346 0.9962657983 0.8160550984 0.5475300838 -0.1851077625 2.479558396e-39
-5.616823397 -1.885916085 0.9316521455 0.8301649127 0.5304014769 -0.1717570695 2.479558396e-39
-4.375550989 -2.692309201 2.062769797 -0.497145249 -0.7339080607 0.462845071 2.755064885e-40
-5.046283966 1.976300607 4.089395281 -0.2404295257 -0.5679796844 0.7871421227 9.183549616e-41
-2.401008506 -2.613280866 2.974646564 -0.2458979773 -0.5250414033 0.8147795466 1.102025954e-39
-5.34410524 -1.792555315 1.963872256 -0.7584399357 -0.5113941055 0.4040358063 3.673419846e-40
-5.354540184 -1.980778847 1.595914597 -0.7692084617 -0.5628258643 0.3025646855 2.755064885e-40
-3.745561812 -2.415240738 2.834346907 -0.3281538176 -0.6194293152 0.7131776746 4.591774808e-40
-3.08215594 -2.92868458 2.539706664 -0.2395033367 -0.7457489352 0.6216885695 3.673419846e-40
-5.064632018 -1.885583983 2.282463546 -0.6668797444 -0.525652673 0.5281672784 3.673419846e-40
-4.636836539 -2.196717008 2.450988868 -0.5576649117 -0.5860957782 0.5877938288 4.591774808e-40
-3.445037591 -2.549543931 2.841935603 -0.2501362382 -0.6530835651 0.7147822881 4.591774808e-40
-4.421162843 5.400463967 -4.578328082 0.2682182388 0.9290403045 0.2548393395 3.765255342e-39
-4.436337587 -2.736420795 1.911124781 -0.5206012701 -0.7401168826 0.4256774808 2.755064885e-40
-4.775601188 -2.312062704 2.17572541 -0.6058293121 -0.6311488842 0.4843778799 2.755064885e-40
-5.255147798 -2.293392811 1.180416861 -0.7466639625 -0.6259825536 0.2250305974 2.755064885e-40
-3.867770822 -1.821467608 3.196916599 -0.3291983068 -0.4453850542 0.8326227407 4.591774808e-40
-6.072182048 1.729229027 1.555833179 -0.7637953825 -0.6055307772 0.2234929338 6.428484731e-40
-4.611922404 -2.386135722 2.273713788 -0.5581717619 -0.6463012979 0.5203257792 2.755064885e-40
-3.528847263 -2.639107431 2.723080043 -0.2829134973 -0.6854569299 0.670901446 4.591774808e-40
-6.118574784 1.708270761 1.381336963 -0.7795882656 -0.5782784853 0.2404914337 6.428484731e-40
-3.001856411 -2.839934019 2.653381608 -0.2254434134 -0.7032079288 0.6742950958 3.673419846e-40
-5.1783945 -2.353465142 1.250908276 -0.7292846208 -0.6408914194 0.2395874169 2.755064885e-40
-6.119157642 1.829253112 1.998054553 0.7039072464 0.7086321673 -0.04852875302 9.183549616e-41
-2.779942795 -2.931960373 2.6014087 -0.2995855919 -0.6605099095 0.6884585191 1.102025954e-39
-4.030444755 -2.441225764 2.664927398 -0.3931225301 -0.6458428185 0.6544782121 4.591774808e-40
-4.176690948 -2.823654185 2.042424575 -0.4433747695 -0.765360172 0.4665218333 2.755064885e-40
-4.790723365 1.52000656 3.456542652 -0.04046869775 -0.8510970048 0.5234464375 9.183549616e-41
-5.473859517 1.457442318 2.953071188 -0.3602415373 -0.8981325813 0.2521584842 8.265194654e-40
-3.961157325 -1.935673129 3.089026542 -0.361586936 -0.487415942 0.7947833587 4.591774808e-40
-3.811025912 -2.595896808 2.622499253 -0.3484120425 -0.6864044524 0.6383243504 4.591774808e-40
-4.782269023 -2.680240666 1.440913411 -0.6376571756 -0.7101169967 0.2985417515 2.755064885e-40
-6.23595862 1.762118338 3.108642277 -0.6394542475 -0.7355494797 0.2237526052 9.183549616e-41
-5.288891118 -2.404210911 -0.1412069348 0.7498983023 0.6519957486 0.1120449912 6.428484731e-40
-5.16380658 -2.563264269 0.01546862519 0.7224434151 0.6876826117 0.0718897599 3.673419846e-40
-5.173950996 -2.550577612 -0.0009367394146 0.7241650618 0.6850198741 0.07957848611 3.673419846e-40
-5.111740833 -2.61702482 0.06075461019 0.7188230758 0.6922786515 0.06358973424 2.755064885e-40
-5.050154774 -2.686078256 0.1285206232 0.7130731213 0.6995646582 0.04621701787 6.428484731e-40
-4.981255627 -2.755773599 0.2105279442 0.7028800046 0.7108494403 0.0255494092 4.591774808e-40
-4.910911738 -2.821814773 0.2865198362 0.6884621697 0.7252688395 0.002225175595 4.591774808e-40
-4.771316419 -2.950377321 0.2718587619 0.6618240417 0.7496314366 0.006453457567 1.010190458e-39
-4.775566772 -2.947569735 0.4241129426 0.6586594713 0.7509177639 -0.04785616585 1.010190458e-39
-4.708299147 -3.007186773 0.4864069159 0.6396216101 0.7653878621 -0.07117314383 3.673419846e-40
-4.628771642 -3.06639668 0.5686701427 0.6251719115 0.7752668843 -0.090118473 2.755064885e-40
-4.553512949 -3.123331439 0.6471639765 0.6084833884 0.7856242279 -0.1119934758 2.755064885e-40
-4.479291049 -3.175201756 0.7112780662 0.591145861 0.7946391251 -0.1381854978 2.755064885e-40
-4.406655004 -3.226535265 0.7678173434 0.5626559334 0.8119799987 -0.1552635899 2.755064885e-40
-4.330063668 -3.271557087 0.8229302369 -0.5301509695 -0.8291293847 0.1774384763 2.755064885e-40
-4.2513629 -3.31159013 0.8682668713 -0.5050964025 -0.8413217132 0.19249779 2.755064885e-40
-4.16904379 -3.346904262 0.912628752 -0.4764501315 -0.8543369265 0.2076142774 9.183549616e-41
-4.137797887 -3.362968091 0.9117795138 -0.4635537972 -0.8615210512 0.2071215959 1.836709923e-40
-3.996683832 -3.406367166 0.9952107609 -0.4071657075 -0.8807699074 0.2417859734 0
-3.907928286 -3.43088495 1.036995357 -0.3756201277 -0.8889094704 0.2622012075 0
-3.818001484 -3.453955556 1.074788429 -0.3536661532 -0.8942034987 0.2744455409 0
-3.725508172 -3.470569001 1.110472644 -0.3303502595 -0.8993882662 0.2863030784 0
-3.631377492 -3.486548698 1.141732777 -0.3122319145 -0.9030975439 0.2948322537 0
-3.337049521 -3.620726451 0.9667087183 -0.2981616135 -0.9245856115 0.2371520593 0
-3.44348337 -3.514327294 1.207345948 -0.2914358636 -0.9032164578 0.3150637518 0
-3.347829886 -3.525389048 1.237472352 -0.3041157488 -0.8972808575 0.3200010532 0
-3.253389769 -3.536438373 1.26776725 -0.3512119367 -0.8787226809 0.3232593782 0
-3.156867731 -3.547362209 1.297409096 -0.4028057485 -0.8507842512 0.3375110173 0
-4.416907619 -2.302405388 2.536889416 -0.4978089316 -0.6114252792 0.6150978748 4.591774808e-40
-6.029108476 1.638621069 3.079808397 -0.4986406304 -0.8417602961 0.2068746616 9.183549616e-41
-5.047424163 -2.37970977 1.552276566 -0.6955751931 -0.6518788303 0.3020416218 2.755064885e-40
-4.927436791 -1.638673806 2.630617874 -0.6185823333 -0.4310411732 0.6569318107 9.183549616e-41
-3.799601194 -5.838889292 3.105755707 -0.8437050212 -0.2894487058 0.4520854829 7.346839693e-40
-3.73437038 -5.902417868 3.176906025 -0.7830915683 -0.3908480264 0.4837410629 7.346839693e-40
-3.672768977 -5.94833967 3.239557535 -0.6897223484 -0.5184053894 0.5055085899 7.346839693e-40
-3.606107084 -5.986545061 3.293727711 -0.6166321287 -0.5857929602 0.525938614 7.346839693e-40
-3.529192263 -6.014103254 3.339102652 -0.5388590236 -0.6540491164 0.5308961349 5.510129769e-40
-3.442000376 -6.037750622 3.379031853 -0.4470967055 -0.7242214721 0.5249836143 9.183549616e-41
-3.350556764 -6.05656249 3.414376252 -0.3728462043 -0.7513548291 0.5444737172 3.673419846e-40
-3.257901981 -6.074800307 3.450042571 -0.3302756529 -0.7511308877 0.5715945964 3.673419846e-40
-3.157252744 -6.079121736 3.475129047 -0.2680174594 -0.7618352393 0.5897234179 3.673419846e-40
-3.057019759 -6.084791352 3.501351245 -0.203433688 -0.7655750978 0.6103355668 1.010190458e-39
-2.953140999 -6.08678625 3.525770375 -0.1433284769 -0.7632322262 0.6300265999 1.010190458e-39
-2.847797509 -6.08207752 3.544648547 -0.07838614097 -0.762137538 0.6426523057 1.010190458e-39
-2.738753282 -6.070227904 3.558199953 -0.01878247334 -0.7561043207 0.6541815305 1.010190458e-39
-2.630201755 -6.052407295 3.56645239 0.02084907228 -0.7435476858 0.6683578047 1.010190458e-39
-2.527149819 -6.034877872 3.573928497 0.0603651091 -0.7232125934 0.6879822661 1.010190458e-39
-2.420087358 -6.014410013 3.579919755 0.09896360283 -0.7047049839 0.7025646525 1.010190458e-39
-4.555582961 1.631651254 3.773538575 0.109064504 -0.8550511658 0.5069442156 2.755064885e-40
-6.221563443 1.729284822 2.783196561 0.6313453475 0.7748106685 -0.03273347185 9.183549616e-41
-2.090583394 -5.926178781 3.565097293 0.197528752 -0.5951883015 0.7789308556 1.010190458e-39
-3.225329627 -3.097451127 2.207425847 -0.2966563529 -0.8085430831 0.5081860791 3.673419846e-40
-5.386110041 1.517862606 3.321183325 -0.2480140758 -0.8845683808 0.3950035416 8.265194654e-40
-2.828906994 -2.646083606 2.87176756 -0.1791234124 -0.6414323031 0.7459754712 1.102025954e-39
-4.240797103 -1.639693212 3.122870214 -0.428257885 -0.4096203766 0.8054851526 4.591774808e-40
-5.524863916 1.569026952 3.424343069 -0.2721017516 -0.8574659634 0.436706719 9.183549616e-41
-3.515834018 -2.376148349 2.965757353 -0.2679257017 -0.6029788697 0.7514201894 4.591774808e-40
-5.080976534 1.030990606 2.549659691 -0.6423861455 -0.2263920135 0.7321794154 8.265194654e-40
-2.409112537 -2.388624233 3.12222991 -0.1626308954 -0.4765065705 0.8639980788 1.102025954e-39
-3.793773924 -2.686738315 2.529143938 -0.3486032484 -0.7152794413 0.6056823392 4.591774808e-40
-4.206910905 -2.333967978 2.660326721 -0.4427861719 -0.6113321537 0.6559065512 4.591774808e-40
-4.708126153 -2.726041411 1.493391142 -0.6180937005 -0.7215850568 0.3118896972 2.755064885e-40
-0.8117725877 -5.875534371 3.788432834 -0.5184593114 -0.5319059092 0.6695342009 2.755064885e-39
-0.7346707309 -5.915316092 3.845114922 -0.5464064332 -0.5560991043 0.6262537792 2.755064885e-39
-0.6600586372 -5.95866649 3.902682653 -0.5575163443 -0.5646798862 0.6085327862 1.285696946e-39
-0.5766078122 -5.985510834 3.948165971 -0.5153920376 -0.6217946942 0.5896968763 7.346839693e-40
-0.5035568402 -6.072523401 3.769054943 -0.3437585659 -0.8394917384 0.4208131052 7.346839693e-40
-0.401251591 -6.030305585 4.027334474 -0.3982059751 -0.7260351382 0.5606290927 3.673419846e-40
-0.3076289562 -6.04601125 4.060930432 -0.3549068761 -0.7447468776 0.5651488278 5.510129769e-40
-0.09235892833 -6.054510381 4.175018003 -0.2805620335 -0.6814988094 0.6759025951 5.510129769e-40
-0.1118812529 -6.07120862 4.124189902 -0.2567477691 -0.7640900066 0.5918167325 5.510129769e-40
-0.005802859979 -6.077262118 4.151009206 -0.1899990047 -0.7760089742 0.6014236861 1.102025954e-39
0.05944026264 -6.088276215 3.937011381 -0.1167860546 -0.9199051778 0.3743467393 1.102025954e-39
0.2016502629 -6.07412655 4.193181378 -0.07061376159 -0.7778887045 0.6244220209 1.102025954e-39
0.3040717455 -6.060325411 4.203593487 -0.02767570812 -0.7798501268 0.6253541675 1.102025954e-39
0.408618967 -6.051987033 4.219926969 0.02816949873 -0.7660427173 0.6421721222 1.102025954e-39
0.5164645508 -6.032398583 4.227645391 0.07132160967 -0.7376762011 0.6713769807 1.102025954e-39
0.6180948676 -6.014108838 4.233062481 0.1222850404 -0.6999105453 0.7036843024 1.102025954e-39
0.7216494037 -5.987395681 4.229131588 0.1671470536 -0.6556740117 0.7363107041 1.102025954e-39
0.6050422718 -6.01015582 4.237184642 0.1259649113 -0.6795172871 0.7227648979 1.102025954e-39
0.9425993659 -5.929779162 4.220622452 0.2268625458 -0.575632716 0.7856082749 1.102025954e-39
-0.8335615594 5.628997276 -1.162914013 0.413712102 -0.9093461636 -0.04395283143 1.836709923e-40
-1.996393461 5.293764799 -1.197664791 -0.1155817437 0.7012304355 0.7035031889 7.346839693e-40
-4.288577433 5.649073692 -4.852220082 -0.1840056765 0.9398790034 0.2876966632 3.765255342e-39
-2.171670072 5.101750464 -0.9879358219 -0.3503294318 0.6235600541 0.6988863629 7.346839693e-40
-3.615374882 7.343676884 -6.960321103 0.9946240455 -0.05369598377 0.08854235976 3.306077862e-39
1.081984278 6.76028791 -2.076706058 -0.02240002464 0.8221329759 0.5688546465 6.152978243e-39
-4.281666632 5.769227896 -5.049025399 -0.2666803816 0.9135911163 0.30697369 3.765255342e-39
0.1745161265 6.448493243 -1.718127608 -0.3284251728 0.893449212 0.3064072641 1.744874427e-39
-4.172857892 4.673583952 -1.895329159 -0.08358849836 0.5384048934 0.8385303416 9.183549616e-41
-4.110533714 6.265297921 -5.916538311 -0.6808261323 0.6687192924 0.2988148014 4.499939312e-39
-1.660497005 5.567818031 -1.453861669 0.000224326363 0.6951792707 0.7188363731 1.836709923e-40
-3.730327137 5.394501131 -3.593902378 -0.6760438558 0.7064437516 0.2095278761 3.214242366e-39
-1.11456162 5.553051602 -1.356777833 -0.2968718133 0.8873647464 0.3527760383 1.836709923e-40
-0.01053642226 6.415603363 -1.672575612 -0.3708806199 0.8826098483 0.2888726734 1.744874427e-39
-3.656225636 5.249362074 -2.533287085 0.8539427428 -0.5037291005 -0.130532698 9.183549616e-41
-0.1579346638 6.666417683 -2.078008534 -0.1742175462 0.6463389195 0.7428958525 6.152978243e-39
-3.62594785 5.529862732 -3.555150308 0.825266149 -0.538597608 -0.1698481675 1.836709923e-40
1.720552982 8.076509178 -3.778218148 0.7003351262 0.3405920085 0.6273179375 1.653038931e-39
-3.696964712 4.995123528 -1.866964455 -0.783713691 0.341438637 0.5188569241 9.183549616e-41
-4.053606221 6.223432 -5.490537278 -0.6885649266 0.6683188711 0.2814750936 3.765255342e-39
-2.615738126 4.307716277 -0.994124995 -0.6701519331 -0.1654093201 0.7235579751 7.346839693e-40
-0.4742521002 5.984153219 -1.542699166 -0.3945151963 0.8844762632 0.2491174417 1.836709923e-40
-3.73841884 4.86966317 -1.798939194 -0.684224283 0.3356725105 0.647426518 9.183549616e-41
-3.833436788 5.362792759 -3.795812912 -0.4689673053 0.8471427197 0.2498377054 3.214242366e-39
-2.482437936 4.471315814 -0.8087427475 -0.7540190415 -0.005960068907 0.6568255192 7.346839693e-40
0.1149373215 6.541692013 -1.892082665 -0.2673345726 0.8335113298 0.483519482 6.152978243e-39
-3.550708991 4.412202991 -1.585942069 -0.441701413 -0.03983089766 0.8962775024 9.183549616e-41
-0.1083511083 6.032096295 -1.51220636 0.4361860471 -0.8975897224 -0.06383120394 1.744874427e-39
0.9564763553 6.700120362 -1.959510648 -0.1185104256 0.8689555521 0.4804909234 6.152978243e-39
-2.341882632 5.007633656 -0.9410554877 -0.4560924585 0.4800619413 0.7493465165 7.346839693e-40
-3.846383489 4.865235752 -1.984568243 -0.5761367955 0.5475967426 0.6067983194 9.183549616e-41
1.773099088 7.676852254 -3.535505602 0.613151293 0.4341740105 0.6599533472 5.693800762e-39
-3.727701601 5.076344395 -2.179216735 -0.82560254 0.4651970291 0.319330816 9.183549616e-41
-1.826070344 5.745362309 -1.557784544 0.2050288861 0.4941210277 0.844871331 1.836709923e-40
-4.116536353 5.289126671 -3.924713344 -0.1181069041 0.9609970127 0.2500709915 3.214242366e-39
-0.3553982108 6.015087341 -1.407074462 0.4538605385 -0.8908903308 -0.01802859202 1.744874427e-39
0.2097618665 6.646622473 -1.968584389 -0.2151096808 0.810579572 0.5446912727 6.152978243e-39
0.9144012891 6.613023792 -1.748547142 0.4130055798 -0.9076605804 -0.07469044052 6.152978243e-39
-2.432825808 5.024587643 -0.9844529823 -0.3823796606 0.4130840677 0.8265272822 7.346839693e-40
-3.886057287 5.596152281 -4.239701391 -0.4473750679 0.8348535275 0.3207415411 3.214242366e-39
-3.87886905 6.798166774 -6.599711776 -0.8992147921 0.3933102164 0.191624193 4.499939312e-39
-3.973939691 4.420577838 -1.759503594 -0.1653262614 0.02961572973 0.985794165 9.183549616e-41
-3.757362785 5.114062012 -2.587677762 -0.6769837139 0.7044474884 0.2131825206 9.183549616e-41
-4.534327893 4.956156098 -2.305413337 0.4114632753 0.788819052 0.4565769116 9.183549616e-41
1.542825516 7.136473455 -2.735976173 0.2824670665 0.6621978322 0.6940507095 5.693800762e-39
-3.592159861 7.185936864 -6.96065214 0.9812094356 -0.09673982449 0.1669414563 4.499939312e-39
-3.986247122 4.899040038 -2.446199769 -0.3204266203 0.8720807702 0.3698674238 9.183549616e-41
-3.767400311 5.584247365 -4.061678435 -0.6443934542 0.7115012294 0.2802196936 3.214242366e-39
-2.094129066 4.940022353 -0.459363126 0.8586053442 -0.5030047806 -0.09890931965 7.346839693e-40
-3.819878338 4.953128549 -2.190678541 -0.6332229732 0.6365368648 0.4402834155 9.183549616e-41
-3.858322977 5.937077434 -4.643941639 -0.6215286091 0.7073170532 0.3367562535 3.765255342e-39
1.212486332 6.937163552 -2.341681371 0.09333963819 0.7568521695 0.6468867795 5.693800762e-39
1.268414207 6.780709152 -2.168116584 0.05268532063 0.8024701996 0.5943617044 6.612155723e-39
-3.978035217 6.618840009 -6.43100294 -0.7913797564 0.5427426038 0.2813335159 4.499939312e-39
-4.119056598 5.938974696 -5.177441387 -0.5019021598 0.8090510668 0.3058277183 3.765255342e-39
-3.899001452 4.856058041 -2.072792285 -0.5046800093 0.6413865213 0.5778593415 9.183549616e-41
-1.899535393 5.637982276 -1.472841523 0.1765181396 0.5270783938 0.8312819697 1.836709923e-40
-0.5469777675 5.984579348 -1.593734096 -0.3401564132 0.8728097009 0.3499954866 1.836709923e-40
-4.046530135 6.318844431 -5.679923857 -0.7033685651 0.656707305 0.2720444398 3.765255342e-39
-3.824973492 6.04928084 -4.698187377 -0.7002482081 0.6268084678 0.3417068797 3.765255342e-39
-4.245628051 6.018400165 -5.587224599 -0.3663865603 0.8376326598 0.4051325903 3.765255342e-39
1.007466957 6.89563667 -2.239215528 0.0308285689 0.760193349 0.6489650772 5.050952289e-39
-1.899035821 5.271411558 -1.168119019 -0.1765700121 0.7526169784 0.6343427423 1.836709923e-40
-1.196825264 5.56266513 -1.416893515 -0.2427399698 0.8652811273 0.4385953464 1.836709923e-40
-3.944794573 4.977358827 -2.663969964 -0.3841219922 0.8810782139 0.2759555692 9.183549616e-41
-4.313716027 5.743766961 -5.10866335 -0.1149543702 0.9290043713 0.35176181 3.765255342e-39
-1.481393555 5.634969471 -1.528678404 -0.04072504946 0.7207222525 0.6920266651 1.836709923e-40
-0.0734496783 6.78398229 -2.124765847 -0.1132865648 0.6111196015 0.7833894222 5.050952289e-39
-0.8639180161 5.642427674 -1.289298473 0.3810403309 -0.9107029916 -0.1594626204 1.836709923e-40
-4.398004088 4.988248884 -2.707314064 0.2997850536 0.9171410095 0.262642895 9.183549616e-41
-0.7750739384 5.854138709 -1.614894003 -0.2414069971 0.843583821 0.4796759309 1.836709923e-40
-4.24169351 5.510976952 -4.571562008 -0.08517299605 0.9588261206 0.2709207102 3.765255342e-39
-1.149322607 5.920576947 -1.771323205 -0.006762573997 0.6775051639 0.7354869275 1.836709923e-40
-4.188952982 5.998288889 -5.554416119 -0.4710923198 0.8107188738 0.3475729189 3.765255342e-39
-4.074514363 6.034139886 -5.251554734 -0.5684191808 0.7699098973 0.2900661734 3.765255342e-39
-1.577857729 5.214195778 -0.9236953913 0.4493547478 -0.881088386 -0.1475248001 7.346839693e-40
1.661344813 7.316778092 -3.01780341 0.4044687072 0.6216158987 0.6708194536 5.693800762e-39
-3.667748683 5.586065498 -3.926264736 -0.8036133921 0.5591248895 0.2039236962 3.214242366e-39
-4.062477118 5.734868182 -4.695991952 -0.3898458629 0.8772043095 0.2802370471 3.765255342e-39
-1.002782761 6.127372887 -1.947935055 0.05904024382 0.6008386407 0.7971870405 1.836709923e-40
